0,0,0,0,0,0,0,0,0,0,0,0,0,0,254,254,254,255,0,0,0,260,260,261,262,262,263,264,265,265,266,266,266,266,266,267,267,267,0,0,0,0,0,0,0,0,0,0,0,0,0,283,283,0,0,0,0,0,0,307,307,307,307,307,307,307,307,307,308,309,309,309,309,311,312,312,315,315,316,318,318,320,321,322,322,324,325,327,328,328,329,330,330,330,331,332,332,333,334,335,335,336,337,338,338,340,341,343,344,344,345,347,348,348,350,352,353,353,355,357,360,362,362,365,368,370,372,372,374,376,377,377,379,380,382,383,383,385,387,388,388,390,392,395,395,396,398,400,400,402,403,404,404,405,406,406,406,406,406,406,406,406,406,406,406,406,406,406,406,406,406,406,406,406,406,406,406,406,0,0,0,0,0,0,0,0,0,0,0,0,0,0,0,0,0,0,345,345,345,345,345,345,345,345,345,345,345,345,345,345,345,345,345,345,345,345,345,345,345,345,345,345,345,345,345,345,344,344,344,344,344,344,344,345,345,345,345,345,345,345,345,345,345,345,345,345,345,345,345,345,345,345,345,345,345,345,345,345,345,345,345,345,345,345,345,345,344,344,344,344,344,344,344,344,344,344,344,344,344,345,345,345,345,345,345,345,345,345,345,345,345,345,345,345,345,345,345,345,345,345,345,345,345,345,345,344,344,344,344,344,344,344,344,344,344,344,344,344,344,344,344,344,344,344,344,344,344,345,345,345,345,345,345,345,345,345,345,345,345,345,345,345,345,345,345,345,345,345,345,345,345,345,344,344,345,344,344,344,344,344,344,344,344,344,407,407,407,407,407,407,407,407,407,407,407,407,407,407,407,407,407,407,407,407,407,407,407,407,407,407,407,407,407,407,407,406,406,406,406,406,406,406,406,406,406,406,406,406,406,406,406,406,406,406,406,406,406,406,406,407,407,407,407,407,407,407,407,407,407,407,407,407,407,407,407,407,406,406,406,406,406,406,406,406,407,407,406,406,406,406,406,406,406,406,406,406,406,406,406,406,406,406,406,406,407,407,407,407,407,407,407,407,407,407,407,407,407,407,407,407,407,407,407,407,407,407,407,407,406,406,407,407,406,406,406,406,406,406,406,406,406,406,406,406,406,406,406,406,406,406,406,406,406,406,406,406,406,406,406,406,406,406,406,406,407,407,407,407,407,407,407,407,407,407,407,407,407,407,407,407,407,407,407,407,407,407,407,407,407,407,407,407,407,407,407,407,407,407,407,407,407,407,407,407,407,407,407,407,407,407,407,407,407,407,407,407,407,407,406,406,406,406,406,406,406,406,406,406,407,407,407,406,406,406,406,407,407,406,406,406,406,406,406,406,406,406,406,406,406,406,406,406,406,406,406,406,406,406,406,406,406,406,406,406,406,406,405,405,405,405,405,405,405,405,405,405,405,405,405,405,406,406,406,406,406,406,406,406,406,406,406,407,407,406,406,406,406,406,406,406,406,406,406,406,405,405,405,405,405,405,404,404,403,403,402,400,400,399,397,397,396,394,394,393,391,391,389,388,388,386,385,385,383,381,381,380,378,378,377,376,376,376,375,374,374,374,374,374,373,373,0,0,0,0,0,0,0,0,0,0,0,0,0,0,0,0,0,0,0,0,0,0,0,0,338,338,0,0,0,0,0,0,0,0,0,0,0,0,328,328,328,327,327,327,327,327,327,326,326,326,325,325,325
0,0,0,0,0,0,0,0,0,0,0,0,0,254,254,254,254,255,256,257,257,258,259,260,260,262,263,264,265,265,265,266,266,266,266,267,267,267,268,270,270,270,270,271,273,273,276,278,0,0,0,283,283,0,0,0,0,0,0,307,307,307,307,308,308,308,308,309,309,309,310,310,310,311,312,312,0,316,316,318,318,320,321,322,322,324,325,327,328,328,329,330,330,330,331,332,332,333,334,335,335,336,338,339,340,340,342,344,345,345,346,347,349,349,350,352,354,354,356,358,360,362,362,365,368,370,372,372,374,376,377,377,379,380,382,383,383,385,387,388,388,390,392,395,395,396,398,400,400,402,403,404,404,405,406,406,406,406,406,406,406,406,406,406,406,406,406,406,406,406,406,406,406,406,406,406,406,406,0,0,0,0,0,0,0,0,0,0,0,0,0,0,0,0,0,0,345,345,345,345,345,345,345,345,345,345,345,345,345,345,345,345,345,345,345,345,345,345,345,345,345,345,345,345,345,345,345,345,344,344,344,345,345,345,345,345,345,345,345,345,345,346,346,346,346,346,346,346,346,346,346,346,346,346,346,346,346,345,345,345,345,345,345,345,345,345,344,344,344,344,344,344,344,344,344,344,344,344,344,345,345,345,345,345,345,345,345,345,345,345,345,345,345,345,345,345,345,345,345,345,345,345,345,345,345,344,344,344,344,344,344,344,344,344,344,344,344,344,344,344,344,344,344,344,344,345,345,345,345,345,345,345,345,345,345,345,345,345,345,345,345,345,345,345,345,344,344,345,345,345,345,345,345,345,345,344,344,344,344,344,344,344,344,344,407,407,407,407,407,407,407,407,407,407,407,407,407,407,407,407,407,407,407,407,407,407,407,407,407,407,407,407,407,407,407,407,407,407,406,406,406,406,406,406,406,406,406,406,406,406,406,406,406,406,406,406,406,406,407,407,407,407,407,407,407,407,407,407,407,407,407,407,407,407,407,407,407,407,407,406,406,407,407,407,407,407,407,407,407,407,407,407,407,407,406,406,406,406,406,406,407,406,406,406,407,407,407,407,407,407,407,407,407,407,407,407,407,407,407,407,407,407,407,407,407,407,407,407,406,406,407,407,406,406,406,406,406,406,406,406,406,406,406,406,406,406,406,406,406,406,406,406,406,406,406,406,406,406,406,406,406,406,406,406,407,407,407,407,407,407,407,407,407,407,407,407,407,407,407,407,407,407,407,407,406,406,407,407,407,407,407,407,407,407,407,407,407,407,407,407,407,407,407,407,407,407,407,407,407,407,407,407,407,407,407,407,407,407,406,406,406,406,406,406,406,406,406,406,407,407,407,406,406,406,406,407,406,406,406,406,406,406,406,406,406,406,406,406,406,406,406,406,406,406,406,406,406,406,406,406,406,406,406,406,406,406,405,405,405,405,405,405,405,405,405,405,405,405,405,405,406,406,406,406,406,406,406,406,406,406,406,406,406,406,406,406,406,406,406,406,406,406,406,406,405,405,405,405,405,405,404,404,403,403,402,400,400,399,397,397,396,394,394,393,391,391,389,388,388,386,385,385,383,381,381,380,378,378,377,376,376,376,375,374,374,374,374,374,373,373,0,0,0,0,0,0,0,0,0,0,0,0,0,0,0,0,0,0,0,0,0,0,0,0,0,0,0,0,0,0,0,0,0,0,0,0,0,0,328,328,328,327,327,327,327,327,327,326,326,326,325,325,325
0,0,0,0,0,0,0,255,255,255,0,0,254,254,254,254,254,255,256,257,257,258,259,260,260,261,263,264,264,264,265,265,266,266,266,267,267,267,268,269,270,270,270,271,273,273,276,278,0,0,0,0,0,0,0,0,0,0,307,307,307,307,307,307,307,308,308,309,309,309,310,310,310,311,312,312,313,314,315,315,317,319,320,322,322,323,325,326,326,327,328,329,329,330,330,331,331,332,334,335,335,336,338,339,340,340,342,344,345,345,346,347,349,349,350,352,354,354,356,358,360,362,362,365,368,370,372,372,374,376,377,377,379,380,381,381,383,385,386,388,388,390,392,395,395,396,398,400,400,402,403,404,404,405,406,406,406,406,406,406,406,406,406,406,406,406,406,406,406,406,406,406,406,406,406,406,406,406,0,0,0,0,0,0,0,0,0,0,0,0,0,0,0,0,0,0,345,345,345,345,345,345,345,345,345,345,345,345,345,345,345,345,345,345,345,345,345,345,345,345,345,345,345,345,345,345,345,345,345,345,345,345,345,345,345,345,345,345,346,346,346,346,346,346,347,347,347,347,347,346,346,346,346,346,346,346,346,346,346,345,345,345,345,345,345,345,344,344,344,344,344,344,344,344,344,344,344,344,344,345,345,345,345,345,345,345,345,345,345,345,345,345,345,345,345,345,345,345,345,345,345,345,345,345,345,345,345,345,345,345,345,345,344,344,344,344,344,344,344,344,344,344,345,345,345,345,345,345,345,345,345,345,345,345,345,345,345,345,345,345,345,345,345,345,345,344,344,345,345,345,345,345,345,345,345,344,344,344,344,344,344,344,344,344,407,407,407,407,407,407,407,407,407,407,407,407,407,407,407,407,407,407,407,407,407,407,407,407,407,407,407,407,407,407,407,407,407,407,407,407,407,407,407,406,406,406,406,406,406,406,406,406,406,406,406,406,406,406,407,407,407,407,407,407,407,407,407,407,407,407,407,407,407,407,407,407,407,407,407,407,407,407,407,407,407,407,407,407,407,407,407,407,407,407,407,407,406,406,407,407,407,406,406,406,407,407,407,407,407,407,407,407,407,407,407,407,407,407,406,406,406,407,407,407,407,407,407,407,407,407,407,407,407,407,407,407,407,407,406,406,406,406,406,406,406,406,406,406,406,406,406,406,406,406,406,406,406,406,406,406,406,406,406,407,407,407,407,407,407,407,407,407,407,407,407,407,407,407,407,407,407,407,407,407,406,406,406,406,406,406,406,407,407,407,407,407,407,407,407,407,407,407,407,407,407,407,407,407,407,407,407,407,407,407,407,407,407,407,407,407,407,407,406,406,406,406,406,407,407,407,407,407,407,407,407,407,406,406,406,406,406,406,406,406,406,406,406,406,406,406,406,406,406,406,406,406,406,406,406,406,406,406,406,406,406,406,406,406,405,405,405,405,405,405,405,405,405,405,405,405,406,406,406,406,406,406,406,406,406,406,407,406,406,406,406,406,406,406,406,406,406,406,406,406,405,405,405,405,405,405,404,404,403,403,402,400,400,399,397,397,396,394,394,392,390,390,389,387,387,386,384,384,382,381,381,379,378,378,377,376,376,376,375,374,374,374,373,373,372,370,370,370,0,0,0,0,0,0,0,0,0,0,0,0,0,344,342,342,342,0,0,0,0,0,0,0,0,0,0,0,0,0,0,0,0,0,0,0,328,328,327,327,327,326,326,326,326,326,325,325,325,324,324
0,0,0,0,0,0,0,254,254,254,254,254,254,254,254,254,254,255,256,256,256,257,258,259,259,261,0,264,264,264,265,265,266,266,266,267,267,267,268,269,270,270,270,0,0,0,0,0,0,0,0,0,0,0,0,305,305,305,306,306,306,306,307,307,307,307,308,308,308,309,309,309,310,311,312,312,313,314,315,315,316,318,319,321,321,322,324,325,325,327,328,328,328,329,329,330,330,331,333,335,335,337,338,339,341,341,342,344,345,345,347,348,349,349,350,352,354,354,356,358,361,363,363,366,368,370,372,372,374,376,377,377,379,380,381,381,383,385,386,388,388,390,392,395,395,397,399,400,400,402,403,404,404,405,406,406,406,406,406,406,406,406,406,406,406,406,406,406,406,406,406,406,406,406,406,406,406,406,0,0,0,0,0,0,0,0,0,0,0,0,0,0,0,0,0,0,0,0,345,345,345,345,345,345,345,345,345,345,345,345,345,345,345,345,345,345,345,345,345,345,345,345,345,345,345,345,345,345,345,345,345,345,345,345,345,345,345,345,346,346,346,346,346,346,347,347,347,347,347,346,346,346,346,346,346,346,346,346,346,345,345,345,345,345,345,345,344,344,344,344,344,344,344,344,344,344,344,344,344,345,345,345,345,345,345,345,345,345,345,345,345,345,345,345,345,345,345,345,345,345,345,345,345,345,345,345,345,345,345,345,345,345,344,344,344,344,344,344,344,344,344,344,345,345,345,345,345,345,345,345,345,345,345,345,345,345,345,345,345,345,344,344,344,344,344,344,344,344,345,345,345,345,345,345,345,344,344,344,344,344,344,344,344,344,407,407,407,407,407,407,407,407,407,407,407,407,407,407,407,407,407,407,407,407,407,407,407,407,407,407,407,407,407,407,407,407,407,407,407,407,407,407,407,406,406,406,406,406,406,406,406,406,406,407,407,407,407,407,407,407,407,407,407,407,407,407,407,407,407,407,407,407,407,407,407,407,407,407,407,407,407,407,407,407,407,407,407,407,407,407,407,407,407,407,407,407,407,407,407,407,407,407,407,407,407,407,407,407,407,407,407,407,407,407,407,407,407,407,406,406,406,407,407,407,407,407,407,407,407,407,407,407,407,407,407,407,407,407,407,406,406,406,406,406,406,406,406,406,406,406,406,406,406,406,406,406,406,406,406,406,406,406,406,407,407,407,407,407,407,407,407,407,407,407,407,407,407,407,407,407,407,407,407,407,406,406,406,406,406,406,406,407,407,407,407,407,407,407,407,407,407,407,407,407,407,407,407,407,407,407,407,407,407,407,407,407,407,407,407,407,407,407,407,406,406,407,407,407,407,407,407,407,407,407,407,407,407,406,406,406,406,406,406,406,406,406,406,406,406,406,406,406,406,406,406,406,406,406,406,406,406,406,406,406,406,406,406,406,405,405,405,405,405,405,405,405,405,405,405,405,405,406,406,406,406,406,406,406,406,406,407,407,407,407,407,407,406,406,406,406,406,406,406,406,405,405,405,405,405,405,404,404,402,402,401,400,400,399,397,397,395,394,394,392,390,390,388,387,387,385,384,384,382,381,381,379,378,378,377,376,376,376,375,374,374,373,373,373,371,369,369,369,0,0,0,361,361,361,0,0,0,0,0,0,0,344,342,342,342,343,0,0,0,0,0,0,0,0,0,0,0,0,0,0,0,0,0,0,0,0,327,326,326,326,326,326,326,325,325,325,324,323,323
0,0,0,0,0,0,0,254,254,254,254,254,254,254,254,254,254,255,256,256,256,257,258,259,259,0,0,0,0,265,265,265,266,266,266,267,267,267,268,269,270,270,270,0,0,0,0,0,0,0,0,0,0,0,0,305,305,305,306,306,306,306,307,307,307,307,308,308,308,309,309,309,310,311,312,312,313,314,315,315,316,318,319,321,321,322,324,325,325,327,328,328,328,329,329,330,330,331,333,335,335,337,338,340,342,342,343,345,346,346,347,348,349,349,351,352,354,354,356,359,362,364,367,367,369,371,373,373,375,376,377,377,379,380,381,381,383,384,386,388,388,390,392,395,395,397,399,400,400,402,404,405,405,405,406,406,406,406,406,406,406,406,406,406,406,406,406,406,406,406,406,406,406,406,406,406,406,406,0,0,0,0,0,0,0,0,0,0,0,0,0,0,0,0,0,0,0,0,345,345,345,345,345,345,345,345,345,345,345,345,345,345,345,345,345,345,345,345,345,345,345,345,345,345,345,345,345,345,345,345,345,345,345,345,345,345,345,346,346,346,346,347,347,347,347,347,347,347,347,347,347,347,347,346,346,346,346,345,345,345,345,345,345,345,345,345,344,344,344,344,344,344,344,344,344,344,344,344,344,345,345,345,345,345,345,345,345,345,345,345,345,345,345,345,345,345,345,345,345,345,345,345,345,345,344,344,344,344,345,345,345,345,345,345,344,344,344,344,344,344,345,345,345,345,345,345,345,345,345,345,345,345,345,345,345,345,345,345,345,345,344,344,344,344,344,344,344,344,344,344,344,345,345,345,345,345,345,345,345,345,407,407,407,407,407,407,407,407,407,407,407,407,407,407,407,407,407,407,407,407,407,407,407,407,407,407,407,407,407,408,407,407,407,407,407,407,407,407,407,407,407,407,407,406,406,406,406,406,406,406,406,406,406,407,407,407,407,407,407,407,407,407,407,407,407,407,407,407,407,407,407,407,407,407,407,407,407,407,407,407,407,407,407,407,407,407,407,407,407,407,407,407,407,407,407,407,407,407,407,407,407,407,407,407,407,407,407,407,407,407,407,407,407,407,407,407,407,407,406,406,406,406,406,407,407,407,407,407,407,407,407,407,407,407,407,407,407,407,407,406,406,406,406,406,406,406,406,406,406,406,406,406,406,406,406,406,406,406,406,406,406,406,406,407,407,407,407,407,407,407,407,407,407,407,407,407,407,407,407,407,407,407,407,406,406,406,406,406,406,406,406,406,407,407,407,407,407,407,407,407,407,407,407,407,407,407,407,407,407,407,407,407,407,407,407,407,407,407,407,407,407,407,407,407,407,407,407,407,407,407,407,407,407,407,407,407,407,407,406,406,406,406,406,406,406,406,406,406,406,406,406,406,406,406,406,406,406,406,406,406,406,406,406,406,406,406,406,406,405,405,405,405,405,405,405,405,405,405,405,405,405,406,406,406,406,406,406,406,406,406,407,407,407,407,407,407,406,406,406,406,406,406,406,406,406,405,405,405,405,405,404,404,402,402,401,400,400,399,397,397,395,394,394,392,390,390,388,387,387,385,384,384,382,381,381,380,378,378,377,376,376,376,375,374,374,373,373,373,371,369,369,369,0,0,0,361,361,361,0,0,0,0,0,0,0,0,344,344,343,343,0,0,0,0,0,0,0,0,0,0,0,0,0,0,0,0,0,0,0,0,326,326,326,326,326,326,325,325,324,324,324,323,323
0,0,0,0,0,0,253,253,253,253,253,253,253,253,254,254,254,255,255,255,256,257,258,259,259,260,0,263,263,263,264,265,266,266,266,267,267,267,268,269,270,270,270,0,0,0,0,0,0,283,283,283,0,0,0,305,305,305,305,306,306,306,306,306,306,307,307,307,308,308,309,309,310,310,311,311,312,313,314,314,315,317,318,318,320,321,323,325,325,326,327,328,328,328,329,329,329,331,333,335,335,337,338,340,342,342,343,345,346,346,347,348,349,349,351,352,354,354,356,359,362,364,367,367,369,371,373,373,375,376,377,377,378,380,381,381,383,384,386,388,388,390,392,395,395,397,399,401,401,402,404,405,405,406,406,406,406,406,406,406,406,406,406,406,406,407,407,406,406,406,406,406,406,406,406,406,406,0,0,0,0,0,0,0,0,0,0,0,0,0,0,0,0,0,0,0,0,0,345,345,345,345,345,345,345,345,345,345,345,345,345,345,345,345,345,345,345,345,345,345,345,345,345,345,345,345,345,345,345,345,345,345,345,345,346,346,346,346,347,347,347,347,347,347,348,348,348,348,348,347,347,347,347,346,346,346,346,345,345,345,345,345,345,345,345,345,344,344,344,344,344,344,344,344,344,344,344,344,344,345,345,345,345,345,345,345,345,345,345,345,345,345,345,345,345,345,345,345,345,345,345,345,345,345,344,344,344,344,345,345,345,345,345,345,344,344,344,344,344,344,344,344,345,345,345,345,345,345,345,345,345,345,345,345,345,345,345,345,345,344,344,344,344,344,344,344,344,344,344,344,344,344,344,344,344,344,345,345,345,345,407,407,407,407,407,407,407,407,407,407,407,407,407,407,407,407,407,407,407,407,407,407,407,407,408,408,408,408,408,408,407,407,408,408,407,407,407,407,407,407,407,407,407,407,407,407,407,407,407,407,407,407,407,407,407,407,407,407,407,407,407,407,407,407,407,407,407,407,407,407,407,407,407,407,407,407,407,407,407,407,407,407,407,407,407,407,407,407,407,407,407,407,407,407,407,407,407,407,407,407,407,407,407,407,407,407,407,407,407,407,407,407,407,407,407,407,407,407,406,406,406,406,406,407,407,407,407,407,407,407,407,407,407,407,407,407,407,407,407,407,407,406,406,406,406,406,406,406,406,406,406,406,406,406,406,406,406,406,406,406,406,407,407,407,407,407,407,407,407,407,407,407,407,407,407,407,407,407,407,407,407,407,407,406,406,406,406,406,406,406,406,406,407,407,407,407,407,407,407,407,407,407,407,407,407,407,407,407,407,407,407,407,407,407,407,407,407,407,407,407,407,407,407,406,406,407,407,407,407,407,407,407,407,407,407,407,407,407,406,406,406,406,406,406,406,406,406,406,406,406,406,406,406,406,406,406,406,406,406,406,406,406,406,406,406,406,406,406,405,405,405,405,405,405,405,405,405,405,405,405,405,406,406,406,406,406,406,406,406,406,406,407,407,407,406,406,406,406,406,406,406,406,406,406,406,405,405,405,405,405,404,403,402,402,401,400,400,398,397,397,395,393,393,391,390,390,388,387,387,385,384,384,382,381,381,380,378,378,377,376,376,376,375,374,374,373,372,372,371,369,369,369,0,0,363,361,361,359,357,357,357,0,0,0,0,348,344,344,343,343,344,343,343,0,0,0,0,0,0,0,0,0,0,0,0,0,0,0,0,0,326,326,326,326,326,326,325,325,324,324,324,323,323
0,0,0,0,0,252,252,252,252,253,253,253,253,253,253,253,254,254,255,255,256,256,257,257,258,259,260,262,262,263,264,265,266,266,266,267,268,268,268,269,270,270,270,0,278,278,0,0,0,283,283,283,0,0,304,304,305,305,305,305,305,305,306,306,306,306,307,307,307,308,308,308,309,310,311,311,311,312,313,313,314,316,317,317,319,320,322,324,324,325,326,327,327,327,328,328,328,330,333,335,335,337,339,341,343,343,344,346,347,347,348,349,350,350,351,353,355,357,357,360,362,365,367,367,369,371,373,373,374,376,377,377,378,380,381,381,383,384,386,388,388,390,392,395,395,397,399,401,401,402,404,405,405,406,406,406,406,406,406,406,406,406,406,406,406,406,406,406,406,406,406,406,406,406,406,406,406,0,0,0,0,0,0,0,0,0,0,0,0,0,0,0,0,0,0,0,346,346,345,345,345,345,345,345,345,345,345,345,345,345,345,345,345,345,345,345,345,345,345,345,345,345,345,345,345,345,345,345,345,345,345,345,345,345,346,346,346,346,347,347,347,347,347,347,348,348,348,348,348,347,347,347,347,346,346,346,346,345,345,345,345,345,345,345,345,345,344,344,344,344,344,344,344,344,344,344,344,344,344,345,345,345,345,345,345,345,345,345,345,345,345,345,345,345,345,345,345,345,345,345,344,344,344,344,344,344,344,344,344,345,345,345,345,345,344,344,344,344,344,344,344,344,345,345,345,345,345,345,345,345,345,345,345,345,345,345,345,345,345,344,344,344,344,344,344,344,344,344,344,344,344,344,344,344,344,344,345,345,0,407,407,407,407,407,407,407,407,407,407,407,407,407,407,407,407,407,407,407,407,407,407,407,407,407,408,408,408,408,408,408,408,408,408,408,407,407,407,407,407,407,407,407,407,407,407,407,407,407,407,407,407,407,407,407,407,407,407,407,407,407,407,407,407,407,407,408,408,408,407,407,407,407,407,407,407,407,407,407,407,407,407,407,407,407,407,407,407,407,407,407,407,407,407,407,407,407,407,407,407,407,407,407,407,407,407,407,407,407,407,407,407,407,407,407,407,407,407,407,407,407,407,407,407,407,407,407,407,407,407,407,407,407,407,407,407,407,407,407,407,407,407,407,406,406,406,406,406,406,406,406,406,406,406,406,406,406,406,406,406,406,406,407,407,407,407,407,407,407,407,407,407,407,407,407,407,407,407,407,407,407,407,407,407,406,406,406,406,406,406,406,406,407,407,407,407,407,407,407,407,407,407,407,407,407,407,407,407,407,407,407,407,407,407,407,407,407,407,407,407,407,407,407,406,406,406,406,406,407,407,407,407,407,407,407,407,407,407,407,406,406,406,406,406,406,406,406,406,406,406,406,406,406,406,406,406,406,406,406,406,406,406,406,406,406,406,406,406,406,406,405,405,405,405,405,405,405,405,405,405,405,405,406,406,406,406,406,406,406,406,406,406,406,406,406,406,406,406,406,406,406,406,406,406,406,405,405,405,405,404,404,404,403,402,402,401,399,399,398,396,396,395,393,393,391,389,389,388,386,386,385,384,384,382,381,381,379,378,378,377,376,376,376,375,374,374,373,372,372,370,368,368,368,0,0,363,361,361,359,357,357,357,0,0,352,350,348,346,346,345,344,344,343,343,0,0,0,0,0,0,0,0,0,0,0,0,0,0,0,0,0,326,326,326,326,325,325,325,325,324,324,323,323,323
0,0,0,0,0,252,252,252,252,0,253,253,253,253,253,253,254,254,255,255,256,256,257,257,258,259,260,262,262,263,264,265,266,266,266,267,268,268,268,269,270,270,270,0,278,278,0,0,0,0,0,0,0,0,304,304,305,305,305,305,305,305,306,306,306,306,307,307,307,307,307,307,308,309,310,310,311,312,313,313,314,315,316,316,318,319,321,321,323,324,325,326,326,326,327,327,328,329,332,0,0,340,340,342,345,346,346,347,348,349,349,350,351,352,352,353,355,357,357,360,362,365,367,367,369,371,373,373,374,376,377,377,378,380,381,381,383,384,386,388,388,391,393,395,395,397,399,401,401,403,404,405,405,406,406,406,406,406,406,406,406,406,407,407,406,406,406,406,406,407,406,406,406,406,406,406,406,0,0,0,0,0,0,0,0,0,0,0,0,0,0,0,0,0,0,0,346,346,345,345,345,345,345,345,345,345,345,345,345,345,345,345,345,345,344,344,345,345,345,345,345,345,345,345,345,345,345,345,345,345,345,345,345,346,346,346,346,347,347,347,347,348,348,348,348,348,348,348,348,348,347,347,347,347,346,346,346,345,345,345,345,345,345,345,345,345,344,344,344,344,344,344,344,344,344,344,344,344,345,345,345,345,345,345,345,345,345,345,345,345,345,345,345,345,345,345,345,345,344,344,344,344,344,344,344,344,344,344,344,345,345,345,345,345,344,344,344,344,344,344,344,344,345,345,345,345,345,345,345,345,345,345,345,345,345,345,345,345,344,344,344,344,344,344,344,344,344,344,344,344,344,344,344,344,344,344,344,345,0,407,407,407,407,407,407,407,407,407,407,407,407,407,407,407,407,407,407,407,407,407,407,407,407,407,408,408,408,408,408,408,408,408,408,408,407,407,407,407,407,407,407,407,407,407,407,407,407,407,407,407,407,407,407,407,407,407,407,407,407,407,407,407,407,407,407,408,408,408,407,407,407,407,407,407,407,407,407,407,407,407,407,407,407,407,407,407,407,407,407,407,407,407,407,407,407,407,407,407,407,407,407,407,407,407,407,407,407,407,407,407,407,407,407,407,407,407,407,407,407,407,407,407,407,407,407,407,407,407,407,407,407,407,407,407,407,407,407,407,407,407,407,407,406,406,406,406,406,407,406,406,406,406,406,406,406,406,407,407,407,407,407,407,407,407,408,408,407,407,407,407,407,407,407,407,407,407,407,407,407,407,407,407,407,407,406,406,406,406,406,406,406,407,407,407,407,407,407,407,407,407,407,407,407,407,407,407,407,407,407,407,407,407,407,407,407,407,407,407,407,407,407,407,406,406,406,406,406,407,407,407,407,407,407,407,407,407,407,407,407,407,406,406,406,406,406,406,406,406,406,406,406,406,406,406,406,406,407,407,406,406,406,406,406,406,406,406,406,406,406,405,405,405,405,405,405,405,405,405,405,405,405,406,406,406,406,406,406,406,406,406,406,406,406,406,406,406,406,406,406,406,406,406,406,406,405,405,405,405,404,404,404,403,402,402,401,399,399,398,396,396,394,393,393,391,389,389,388,386,386,385,383,383,382,381,381,379,378,378,377,376,376,375,374,373,373,372,371,371,370,368,368,368,0,0,362,361,361,359,357,357,356,354,354,352,350,350,348,347,347,345,345,0,0,0,0,0,0,0,0,0,0,0,0,0,0,0,0,0,0,0,326,326,326,325,325,325,325,324,323,323,322,322,0
0,0,0,0,0,252,251,251,251,251,252,252,252,253,253,253,254,254,255,255,256,256,257,257,258,259,260,262,262,263,264,265,266,266,266,267,268,268,268,268,268,269,269,0,278,278,0,0,0,0,0,0,0,0,304,304,304,304,304,305,305,304,304,304,305,305,305,305,306,307,307,307,308,309,310,310,311,312,313,313,314,315,316,316,318,319,321,321,323,324,325,326,326,326,327,327,328,329,332,0,0,0,344,344,346,347,347,0,0,0,0,352,352,353,353,354,0,0,0,0,365,365,367,367,369,371,373,373,374,376,377,377,378,380,381,381,383,385,387,389,389,391,393,395,395,398,400,401,401,403,404,405,405,406,406,406,406,406,406,406,406,407,407,407,407,407,406,406,406,407,406,406,406,406,406,406,406,0,0,0,0,0,0,0,0,0,0,0,0,0,0,0,0,0,0,0,346,346,345,345,345,345,345,345,345,345,345,345,345,345,345,345,345,345,344,344,345,345,345,345,345,345,345,345,345,345,345,345,345,345,346,346,346,346,346,346,347,347,347,347,348,348,348,348,348,349,348,348,348,348,347,347,347,346,346,346,346,345,345,345,345,345,345,345,345,345,344,344,344,344,344,344,344,344,344,344,344,345,345,345,345,345,345,345,345,345,345,345,345,345,345,345,345,345,345,345,345,344,344,344,344,344,344,344,344,344,344,344,344,345,345,345,345,345,344,344,344,344,345,345,345,345,345,345,345,345,345,345,345,345,345,345,345,345,345,345,344,344,344,344,344,344,344,344,344,344,344,344,344,344,344,344,344,344,344,344,344,345,0,407,407,407,407,407,407,407,407,407,407,407,407,407,407,407,407,407,407,407,407,407,407,407,407,407,407,408,408,408,408,408,408,408,408,408,408,408,408,407,407,407,407,407,407,407,407,407,407,407,407,407,407,407,407,407,407,407,407,407,407,407,407,407,407,408,408,408,408,408,407,407,407,407,407,407,407,407,407,407,407,407,407,407,407,407,407,407,407,407,407,407,407,407,407,407,407,407,407,407,407,407,407,407,407,407,407,407,407,407,407,407,407,407,407,407,407,407,407,407,407,407,407,407,407,407,407,407,407,407,407,407,407,407,407,407,407,407,407,407,407,407,407,407,406,406,406,406,406,407,406,406,406,406,406,406,406,406,407,407,407,407,407,407,407,407,408,408,407,407,407,407,407,407,407,407,407,407,407,407,407,407,407,407,407,407,406,406,406,406,406,406,406,407,407,407,407,407,407,407,407,407,407,407,407,407,407,407,407,407,407,407,407,407,407,407,407,407,407,407,407,407,407,407,406,406,406,406,406,406,407,407,407,407,407,407,407,407,407,407,407,407,406,406,406,406,406,406,406,406,406,406,406,406,406,406,406,406,407,407,406,406,406,406,406,406,406,406,406,406,406,405,405,405,405,405,405,405,405,405,405,405,405,406,406,406,406,406,406,406,406,406,406,406,406,406,406,406,406,406,406,406,406,406,406,406,405,405,405,405,405,405,404,403,402,402,401,399,399,398,396,396,394,393,393,391,390,390,388,386,386,385,383,383,382,381,381,379,378,378,377,376,376,375,374,373,373,372,371,371,370,368,368,368,0,0,362,361,361,359,357,357,356,354,354,352,352,0,349,347,347,347,0,0,0,0,0,0,0,0,0,0,0,0,0,0,0,0,0,0,0,0,0,0,0,325,325,325,325,324,323,323,322,322,0
0,0,0,0,0,0,251,250,250,251,251,251,252,253,253,253,253,254,255,255,255,256,257,257,258,259,260,262,262,263,264,265,266,266,266,0,0,268,268,268,268,269,269,0,279,279,286,286,286,286,286,287,287,0,304,304,304,304,304,304,304,304,304,304,304,304,304,304,305,306,307,307,308,309,310,310,310,311,311,312,313,314,314,315,317,318,320,320,322,323,324,324,325,325,326,326,326,328,332,0,343,343,343,344,346,347,347,0,0,0,0,352,352,353,353,354,0,0,0,0,365,365,367,367,369,371,373,373,374,376,377,377,378,380,381,381,383,385,387,389,389,391,393,395,395,398,400,401,401,403,404,405,405,406,406,406,406,406,406,406,406,407,407,407,407,407,406,406,406,407,406,406,406,406,406,406,406,0,0,0,0,0,0,0,0,0,0,0,0,0,0,0,0,0,0,0,346,346,345,345,345,345,345,345,345,345,345,345,345,345,345,345,345,345,344,344,345,345,345,345,345,345,345,345,345,345,345,345,345,345,346,346,346,346,347,347,347,347,347,347,348,348,348,348,349,349,348,348,348,348,347,347,347,346,346,346,346,345,345,345,345,345,345,345,345,345,344,344,344,344,344,344,344,344,344,344,344,345,345,345,345,345,345,345,345,345,345,345,345,345,345,345,345,345,345,345,345,344,344,345,344,344,344,344,344,344,344,344,345,345,345,345,345,345,345,344,344,344,345,345,345,345,345,345,345,345,345,345,345,345,345,345,345,345,345,345,344,344,344,344,344,344,344,344,344,344,344,344,344,344,344,344,344,344,344,344,344,345,0,407,407,407,407,407,407,407,407,407,407,407,407,407,407,407,407,407,407,407,407,407,407,407,407,407,407,408,408,408,408,408,408,408,408,408,408,408,408,408,407,407,407,407,407,407,407,407,407,407,407,407,407,407,407,407,407,407,407,407,407,407,408,408,407,407,407,407,408,408,407,407,407,407,407,407,407,407,407,407,407,407,407,407,407,407,407,407,407,407,407,407,407,407,407,407,407,407,407,407,407,407,407,407,407,407,407,407,407,407,407,407,407,407,407,407,407,407,407,407,407,407,407,407,407,407,407,407,407,407,407,407,407,407,407,407,407,407,407,407,407,407,407,407,407,406,406,406,406,407,406,406,406,406,406,407,407,407,407,407,407,407,407,407,407,407,407,408,408,408,408,407,407,407,407,407,407,407,407,407,407,407,407,407,407,407,407,407,407,407,407,407,407,407,407,407,407,407,407,407,407,407,407,407,407,407,407,407,407,407,407,407,407,407,407,407,407,407,407,407,407,407,407,407,406,406,406,406,406,406,407,407,407,407,407,407,407,407,407,407,407,407,406,406,406,406,406,407,407,407,407,407,407,407,407,407,407,407,407,407,407,407,407,406,406,406,406,406,406,406,406,406,406,405,405,405,405,405,405,405,405,405,405,405,405,406,406,406,406,406,406,406,406,406,406,406,406,406,406,406,406,406,406,406,406,406,405,405,405,405,404,404,404,403,402,402,401,399,399,398,396,396,394,393,393,391,389,389,388,386,386,385,383,383,382,381,381,379,378,378,377,376,376,375,374,373,373,372,371,371,369,367,367,365,363,363,362,361,361,359,357,357,356,354,354,352,352,0,349,347,347,347,346,346,346,0,0,0,0,0,0,0,0,0,0,0,0,0,0,0,0,0,0,0,0,325,324,324,324,323,323,322,322,322,0
0,0,0,0,0,0,0,250,250,251,251,251,251,252,252,252,253,254,254,254,255,256,257,257,258,259,261,262,262,263,264,0,0,0,0,0,0,268,268,268,268,269,286,286,286,286,286,286,286,286,286,287,287,0,301,301,301,302,302,302,303,303,303,303,303,303,303,303,304,305,305,306,307,308,308,309,310,311,311,312,313,313,313,315,316,318,319,319,321,322,323,323,324,324,325,325,326,327,330,330,343,343,343,346,348,349,349,351,0,0,353,353,353,354,354,355,357,359,359,361,363,365,367,367,369,371,373,373,374,376,377,377,378,380,381,381,382,384,387,389,389,391,394,396,396,398,400,402,403,403,404,405,405,406,406,406,406,407,407,407,407,407,407,407,407,407,407,406,406,407,406,406,406,406,406,406,406,0,0,0,0,0,0,0,0,0,0,0,0,0,0,0,0,0,0,0,345,345,345,345,345,345,345,345,345,345,345,345,345,345,345,345,345,345,344,344,344,344,344,344,344,344,344,345,345,345,345,345,345,345,346,346,346,346,347,347,347,347,347,347,348,348,348,348,348,348,348,348,348,347,347,347,347,346,346,346,345,345,345,345,345,345,345,345,345,345,344,344,344,344,344,344,344,344,344,344,344,345,345,345,345,344,344,344,345,345,345,345,345,345,345,345,345,345,345,345,345,344,344,345,344,344,344,344,344,344,344,344,344,345,345,345,345,345,344,344,344,344,345,345,345,345,345,345,345,345,345,345,345,345,345,345,345,344,344,344,344,344,344,344,344,344,344,344,344,344,344,344,344,344,344,344,344,344,344,344,344,344,344,344,407,407,407,407,407,407,407,407,407,407,407,407,407,407,407,407,407,407,407,407,407,407,407,407,407,408,408,408,408,408,408,408,408,408,408,408,408,408,408,408,407,407,407,407,407,407,407,407,407,407,407,407,407,407,407,407,407,407,407,407,408,408,407,407,407,407,408,408,407,407,407,407,407,407,407,407,407,407,407,407,407,407,407,407,407,407,407,407,407,407,407,407,407,407,407,407,407,407,407,407,407,407,407,407,407,407,407,407,407,407,407,407,407,407,407,407,407,407,407,407,407,407,407,407,407,407,407,407,407,407,407,407,407,407,407,407,407,407,407,407,407,407,407,407,407,407,407,407,407,407,407,407,407,407,407,407,407,407,407,407,407,407,407,407,407,408,408,408,408,407,407,407,407,407,407,407,407,407,407,407,407,407,407,407,407,407,407,407,407,407,407,407,407,407,407,407,407,407,407,407,407,407,407,407,407,407,407,407,407,407,407,407,407,407,407,407,407,407,407,407,407,407,406,406,406,406,406,407,407,407,407,407,407,407,407,407,407,407,407,407,407,407,407,406,406,407,407,407,407,407,407,407,407,407,407,407,407,407,407,407,407,407,407,407,406,406,406,406,406,406,406,406,405,405,405,405,405,405,405,405,405,405,405,406,406,406,406,406,406,406,406,406,406,406,406,406,406,406,406,406,406,406,406,406,405,405,405,405,404,404,404,403,402,402,401,399,399,398,396,396,394,393,393,391,389,389,388,386,386,385,384,384,382,381,381,380,378,378,377,376,375,375,374,373,373,371,370,370,368,366,366,365,363,363,362,360,360,359,358,358,356,355,355,354,353,353,351,351,0,0,346,346,346,0,0,0,0,0,0,0,0,0,0,0,0,0,0,0,0,0,0,0,0,0,324,324,324,322,322,322,322,322,0
242,242,243,244,245,247,247,248,249,250,251,251,251,252,252,252,253,254,254,254,255,256,257,257,258,260,262,262,262,263,265,0,0,0,0,0,0,268,268,268,268,0,286,286,286,286,287,287,287,286,286,287,287,0,301,301,301,302,302,302,303,303,303,303,303,303,303,303,304,305,305,306,307,308,308,309,310,311,311,312,313,313,313,315,316,318,319,319,321,322,323,323,324,324,325,325,326,327,330,330,345,345,345,348,350,351,351,351,0,0,353,353,354,355,355,356,357,359,359,361,363,366,367,367,369,371,373,373,374,376,377,377,378,380,381,381,382,384,387,389,389,392,394,397,397,399,400,402,403,403,404,405,405,406,406,407,407,407,407,407,407,407,407,407,407,407,407,407,407,407,406,406,406,406,406,406,406,406,406,0,0,0,0,0,0,0,0,0,0,0,0,0,0,0,0,0,345,345,345,345,345,345,345,345,345,345,345,345,345,345,345,345,345,345,344,344,344,344,344,344,344,344,344,344,345,345,345,345,345,345,346,346,346,346,347,347,347,347,347,347,348,348,348,348,348,348,348,347,347,347,347,347,346,346,345,345,345,345,345,345,345,345,345,345,345,345,345,344,344,344,344,344,344,344,344,344,344,344,345,345,345,344,344,344,344,345,345,345,345,345,345,345,345,345,345,345,345,344,344,345,344,344,344,344,344,344,344,344,344,344,344,344,344,345,344,344,344,344,344,345,345,345,345,345,345,345,345,345,345,345,345,345,345,344,344,344,344,344,344,344,344,344,344,344,344,344,344,344,344,344,344,344,344,344,344,344,344,344,344,344,407,407,407,407,408,407,407,407,407,407,407,407,407,407,407,407,407,407,407,407,407,407,407,407,407,408,408,408,408,408,408,408,408,408,408,408,408,408,408,408,407,407,407,407,407,407,407,407,407,407,407,407,407,407,407,407,407,407,407,407,407,407,407,407,407,407,407,407,407,407,407,407,407,407,407,407,407,407,407,407,407,407,407,407,407,407,407,407,407,407,407,407,407,407,407,407,407,407,407,407,407,407,407,407,407,407,407,407,407,407,407,407,407,407,407,407,407,407,407,407,407,407,407,407,407,407,407,407,407,407,407,407,407,407,407,407,407,407,407,407,407,407,407,407,407,407,407,407,407,407,407,407,407,407,407,407,407,407,407,407,407,407,407,407,407,408,408,407,407,407,407,407,407,407,407,407,407,407,407,407,407,407,407,407,407,407,407,407,406,406,406,406,407,407,407,407,407,407,407,407,407,407,407,407,407,407,407,408,408,408,408,408,408,407,407,407,407,407,407,407,407,407,407,406,406,406,406,407,407,407,407,407,407,407,407,407,407,407,407,407,407,407,407,406,406,407,407,407,407,407,407,407,407,407,407,407,407,407,407,407,407,407,407,407,407,406,406,406,406,406,406,406,406,406,406,406,406,406,405,405,406,406,406,406,406,406,406,406,406,406,406,406,406,406,406,406,406,406,406,406,406,406,406,406,405,405,405,405,404,404,404,403,402,402,401,399,399,398,396,396,394,393,393,391,390,390,388,386,386,385,384,384,382,381,381,380,378,378,377,376,375,375,374,373,373,371,370,370,368,366,366,365,363,363,362,360,360,359,358,358,357,355,355,354,353,353,351,351,0,0,0,0,0,0,0,0,0,0,0,0,0,0,0,0,0,0,0,0,0,0,0,0,0,0,0,0,0,322,322,321,320,320,320
242,242,243,244,245,246,246,248,249,249,249,250,251,252,252,252,253,253,254,254,255,256,257,257,258,260,262,262,262,263,265,0,0,0,0,267,267,267,268,268,268,0,286,286,286,286,287,287,287,286,286,287,287,288,301,299,299,301,301,301,302,302,302,302,302,302,302,303,303,304,304,305,306,308,308,309,310,310,310,311,312,313,313,314,315,317,317,319,320,321,322,322,323,324,324,324,325,327,330,330,345,345,345,348,350,351,351,351,353,353,353,353,354,355,355,356,357,359,359,361,363,366,367,367,369,371,372,372,374,376,377,377,378,379,381,381,382,384,387,389,389,392,394,397,397,399,400,402,403,403,404,405,405,406,406,407,407,407,407,407,407,407,407,407,407,407,407,407,407,407,407,407,407,406,406,406,406,406,406,0,0,0,0,0,0,0,0,0,0,0,0,0,0,0,0,0,0,0,346,345,345,345,345,345,345,345,345,345,345,345,345,345,345,345,344,344,344,344,344,344,344,344,344,344,345,345,345,345,345,345,346,346,346,346,347,347,347,347,347,347,348,348,348,348,348,348,348,347,347,347,347,347,346,346,345,345,345,345,345,345,345,345,345,345,345,345,345,345,345,345,345,344,344,344,344,344,344,344,345,345,345,345,345,344,344,345,345,345,345,345,345,345,345,345,345,345,345,344,344,345,345,344,344,344,344,344,344,344,344,344,344,344,344,345,344,344,344,344,344,345,345,345,345,345,345,345,345,345,345,345,345,345,344,344,344,344,344,344,344,344,344,344,344,344,344,344,344,344,344,344,344,344,344,344,344,344,344,407,407,407,407,408,407,407,408,407,407,407,407,407,407,407,407,407,407,407,407,407,407,407,407,407,407,407,407,407,407,408,408,408,408,408,408,408,408,408,408,408,408,408,407,407,407,407,407,407,407,407,407,407,408,408,408,408,408,408,407,407,407,407,407,407,407,407,407,407,407,407,407,407,407,407,407,407,407,407,407,407,407,407,407,407,407,407,407,407,407,407,407,407,407,407,407,407,407,407,407,407,407,407,407,407,407,407,407,407,407,407,407,407,407,407,407,407,407,407,407,407,407,407,407,407,407,407,407,407,407,407,407,407,407,407,407,407,407,407,407,407,407,407,407,407,407,406,406,406,407,407,407,407,407,407,407,407,407,407,407,407,407,407,407,407,407,407,407,407,407,407,407,407,407,407,407,407,407,407,407,407,407,407,407,407,407,407,407,407,407,407,406,406,406,406,407,407,407,407,407,407,407,407,407,407,407,407,407,407,407,408,408,408,408,408,408,407,407,407,407,407,407,407,407,407,406,406,406,406,406,406,407,407,407,407,407,407,407,407,407,407,407,407,407,407,407,406,406,407,407,407,407,407,407,407,407,407,407,407,407,407,407,407,407,407,407,407,407,406,406,406,406,406,406,406,406,406,406,406,406,406,405,405,406,406,406,406,406,406,406,406,406,406,406,406,406,406,406,406,406,406,406,406,406,406,406,406,405,405,405,405,404,404,404,403,402,402,401,399,399,398,396,396,394,393,393,391,390,390,388,386,386,385,383,383,382,381,381,379,378,378,377,376,375,375,374,372,372,371,370,370,368,366,366,364,363,363,362,360,360,359,358,358,357,355,355,354,353,353,351,351,351,351,0,0,0,0,0,0,0,0,0,0,0,0,0,0,0,0,0,0,0,0,0,0,0,0,0,0,0,0,0,321,320,320,320
242,242,242,243,245,246,246,247,248,249,249,250,251,251,252,252,252,253,254,254,0,0,258,258,258,260,261,262,262,263,265,266,266,266,267,267,267,267,268,268,268,288,287,287,287,287,287,287,287,287,287,287,287,288,290,299,299,299,300,300,301,302,302,302,302,302,302,302,303,303,303,305,306,307,307,308,309,310,310,311,312,313,313,314,315,316,316,317,319,320,321,321,322,323,324,324,325,0,0,0,350,350,351,351,352,352,352,352,353,353,353,354,355,356,356,356,358,359,359,361,364,366,367,367,369,371,372,372,374,375,377,377,378,379,381,381,382,384,387,390,390,392,395,397,397,399,401,402,403,403,404,405,405,406,406,407,407,407,407,407,407,407,407,407,407,407,407,407,407,407,407,407,407,406,406,406,406,406,406,0,0,0,0,0,0,0,0,0,0,0,0,0,0,0,0,0,0,345,345,345,345,345,345,345,345,345,345,345,345,345,345,345,345,345,344,344,344,344,344,344,344,344,344,344,345,345,345,345,345,345,345,346,346,346,346,346,347,347,347,347,347,347,347,347,347,347,347,347,347,347,346,346,346,345,345,345,345,345,345,345,345,345,345,345,345,345,345,345,345,345,345,344,344,344,344,344,344,344,344,344,344,344,345,344,344,345,345,345,345,345,345,345,345,345,345,345,345,344,344,345,345,344,344,344,344,344,344,344,344,344,344,344,344,344,344,344,344,344,344,344,344,344,345,345,345,345,345,345,345,345,345,345,344,344,344,344,344,344,344,344,344,344,344,344,344,344,344,344,344,344,344,344,344,344,344,344,407,407,407,407,408,408,407,407,408,408,408,408,408,407,407,407,407,407,407,407,407,407,407,407,407,407,407,407,407,407,407,408,408,408,408,408,408,408,408,408,408,408,408,408,408,407,407,407,407,407,407,407,407,408,408,408,408,408,408,408,407,407,407,407,407,407,407,407,408,408,407,407,407,407,407,407,407,407,407,407,407,407,407,407,407,407,407,407,407,407,407,407,407,407,407,407,407,407,407,407,407,407,407,407,407,407,407,407,407,407,407,407,407,407,407,407,407,407,407,407,407,407,407,407,407,407,407,407,407,407,407,407,407,407,407,407,407,407,407,407,407,407,407,407,407,406,406,406,406,406,407,407,407,407,407,407,407,407,407,407,407,407,407,407,407,407,407,407,407,407,407,407,407,407,407,407,407,407,407,407,407,407,407,407,407,407,407,407,407,407,407,407,406,406,406,406,407,407,407,407,407,407,407,407,407,407,407,407,407,407,407,408,408,408,408,408,408,407,407,407,407,407,407,407,407,407,406,406,406,406,406,406,407,407,407,407,407,407,407,407,407,407,407,407,407,407,407,406,406,407,407,407,407,407,407,407,407,407,407,407,407,407,407,407,407,407,407,407,407,407,406,406,406,406,406,406,406,406,406,406,406,406,406,406,406,406,406,406,406,406,406,406,406,406,406,406,406,406,406,406,406,406,406,406,406,406,406,406,405,405,405,405,404,404,404,403,402,402,401,399,399,398,396,396,394,393,393,391,390,390,388,386,386,385,383,383,382,381,381,379,378,378,377,376,375,375,373,372,372,371,369,369,368,366,366,364,363,363,361,360,360,359,358,358,357,356,356,355,354,354,353,351,351,351,0,0,0,0,0,0,0,0,0,0,0,0,0,0,0,0,0,0,0,0,0,0,0,0,0,0,0,0,0,321,320,320,320
242,242,242,243,245,246,246,247,248,249,249,250,251,251,252,252,252,253,254,254,0,0,258,258,258,260,261,262,262,263,265,266,266,266,267,267,268,268,0,0,288,288,288,288,288,288,288,288,288,288,288,288,289,289,290,0,299,299,300,300,301,302,302,302,302,302,302,302,303,303,303,305,306,307,307,308,309,310,310,311,312,313,313,314,315,316,316,317,318,319,319,320,321,322,322,323,323,0,0,0,353,353,353,353,353,353,353,353,353,354,354,354,355,356,356,357,358,360,360,362,364,366,367,367,369,370,372,372,374,375,377,377,378,379,381,381,382,385,387,390,390,393,396,398,399,399,401,402,403,403,404,405,405,406,406,406,406,407,407,407,407,407,407,407,407,407,407,407,407,407,407,407,407,407,406,406,406,406,0,0,0,0,0,0,0,0,0,0,0,0,0,0,0,0,0,0,0,345,345,345,345,345,345,345,345,345,345,345,345,345,345,345,345,345,344,344,344,344,344,344,344,344,344,344,345,345,345,345,345,345,345,346,346,346,346,346,347,347,347,347,347,347,347,347,347,347,347,346,346,346,346,346,345,345,345,345,345,345,345,345,345,345,345,345,345,345,345,345,345,345,344,344,344,344,344,344,344,344,344,344,344,344,344,344,344,344,344,345,345,345,345,345,345,345,345,345,345,345,345,345,345,345,344,344,344,344,344,344,344,344,344,344,344,344,344,344,344,344,344,344,344,344,345,345,345,345,345,345,345,345,345,345,344,344,344,344,344,344,344,344,344,344,344,344,344,344,344,344,344,344,344,344,344,344,344,344,407,407,407,407,408,408,407,407,408,408,408,408,408,407,407,407,407,407,407,407,407,407,407,407,407,407,407,407,407,407,407,408,408,408,408,408,408,408,408,408,408,408,408,408,407,407,407,407,407,407,407,407,407,407,408,408,408,408,408,408,407,407,407,407,407,407,407,407,407,407,407,407,407,407,407,407,407,407,407,407,407,407,407,407,407,407,407,407,407,407,407,407,407,407,407,407,407,407,407,407,407,407,407,407,407,407,407,407,407,407,407,407,407,407,407,407,407,407,407,407,407,407,407,407,407,407,407,407,407,407,407,407,407,407,407,407,407,407,407,407,407,407,407,407,407,406,406,406,406,406,407,407,407,407,407,407,407,407,407,407,407,407,407,407,407,407,407,407,407,407,407,407,407,407,407,407,407,407,407,407,407,407,407,407,407,407,407,407,407,407,407,407,406,406,406,406,407,407,407,407,407,407,407,407,407,407,408,408,408,408,408,408,408,408,408,408,408,407,407,407,407,407,407,407,407,407,407,406,406,406,406,407,407,407,407,407,407,407,407,407,407,407,407,407,407,407,407,406,406,407,407,407,407,407,407,407,407,407,407,407,407,407,407,407,407,407,407,407,407,407,407,407,406,406,406,406,406,406,406,406,406,406,406,406,406,406,406,406,406,406,406,406,406,406,406,406,406,406,406,406,406,406,406,406,406,406,406,406,405,405,405,405,404,404,404,403,402,402,401,400,400,398,397,397,395,393,393,392,390,390,388,387,387,385,383,383,382,381,381,379,378,378,377,376,375,375,373,372,372,370,369,369,367,366,366,364,363,363,361,360,360,359,359,359,358,357,357,356,356,355,354,354,354,0,0,0,0,0,0,0,0,0,0,0,0,0,0,0,0,0,0,0,0,0,0,0,0,0,0,0,0,0,0,320,319,319,319
242,242,242,243,244,244,246,247,248,248,248,249,250,251,252,252,252,253,253,253,254,256,256,256,258,260,261,262,262,263,265,266,266,266,267,267,268,268,0,287,287,288,288,288,288,288,288,288,288,288,288,288,289,289,290,293,297,297,297,299,300,301,301,301,301,301,301,302,302,303,303,304,305,306,306,308,309,310,310,311,311,312,312,313,314,315,315,317,318,319,319,320,321,322,322,323,323,0,0,0,354,354,354,354,354,354,354,354,354,354,355,355,355,356,356,357,359,360,360,362,364,366,367,367,369,370,372,372,374,375,377,377,378,379,381,381,383,385,0,0,0,396,396,399,400,400,401,402,403,403,404,405,405,406,406,406,406,407,407,407,407,407,407,407,407,407,407,407,407,407,407,407,407,407,407,407,406,406,0,0,0,0,0,0,0,0,0,0,0,0,0,0,0,0,0,0,0,0,0,345,345,345,345,345,345,345,345,345,345,345,345,345,345,345,344,344,344,344,344,344,344,344,344,344,345,345,345,345,345,345,345,346,346,346,346,346,347,347,347,347,347,347,347,347,347,347,346,346,346,346,345,345,345,345,345,345,345,345,345,345,345,345,345,345,345,345,345,345,345,345,344,344,344,344,344,344,344,344,344,344,344,344,344,344,344,344,344,344,345,345,345,345,345,345,345,345,345,345,345,345,345,345,345,345,345,344,344,344,344,344,344,344,344,344,344,344,344,344,344,344,344,344,345,345,345,345,345,345,345,345,345,345,345,345,345,344,344,344,344,344,344,344,344,344,344,344,344,344,344,344,344,344,344,345,345,407,407,407,408,408,408,408,408,408,408,408,408,408,408,408,407,407,407,407,407,407,407,407,407,407,407,407,407,407,407,407,407,407,408,408,408,408,408,408,408,408,408,408,408,408,407,407,407,407,407,407,407,407,407,407,408,408,408,408,408,408,407,407,407,407,407,407,407,407,407,407,407,407,407,407,407,407,407,407,407,407,407,407,407,407,407,407,407,407,407,407,407,407,408,407,407,407,407,407,407,407,407,407,407,407,407,407,407,407,407,407,407,407,407,407,407,407,407,407,407,407,407,407,407,407,407,407,407,407,407,407,407,407,407,407,407,407,407,407,407,407,407,407,407,407,407,406,406,406,406,406,407,407,407,407,407,407,407,407,407,407,407,407,407,407,407,407,407,407,407,407,407,407,407,407,407,407,407,407,407,407,407,407,407,407,407,407,407,407,407,407,407,407,406,406,406,406,407,407,407,407,407,407,407,407,407,407,408,408,408,408,408,408,408,408,408,408,408,407,407,407,407,407,407,407,407,407,407,406,406,406,406,407,407,407,407,407,407,407,407,407,407,407,407,407,407,407,407,406,406,407,407,407,407,407,407,407,407,407,407,407,407,407,407,407,407,407,407,407,407,407,407,407,406,406,406,406,406,406,406,406,406,406,406,406,406,406,406,406,406,406,406,406,406,406,406,406,406,406,406,406,406,406,406,406,406,406,406,406,406,405,405,405,404,404,404,403,402,402,401,400,400,399,397,397,396,394,394,392,391,391,389,387,387,385,383,383,382,381,381,379,378,378,377,376,375,375,373,372,372,370,369,369,367,366,366,364,363,363,362,360,360,359,359,359,358,358,358,357,356,355,355,354,354,0,0,0,0,0,0,0,0,0,0,0,0,0,0,0,0,0,0,0,0,0,0,0,0,0,0,0,0,0,0,320,319,319,319
241,241,242,243,244,244,245,246,248,248,248,249,250,251,251,251,252,252,252,253,254,254,254,256,258,260,262,265,266,266,266,267,267,267,267,268,0,0,0,287,287,288,288,288,288,288,288,288,288,288,288,288,289,289,290,292,296,296,296,297,299,300,300,300,300,301,301,301,302,302,302,303,304,304,306,307,308,309,309,310,311,312,312,313,314,315,315,316,317,318,318,319,321,322,322,323,323,0,0,356,354,354,354,354,354,354,354,354,354,354,355,355,355,356,356,357,359,360,360,362,364,366,367,367,369,370,372,372,373,375,376,376,378,379,381,381,383,385,0,0,0,396,396,399,400,400,401,402,403,403,404,405,405,406,406,406,406,407,407,407,407,407,407,407,407,407,407,407,407,407,407,407,407,407,407,407,406,406,0,0,0,0,0,0,0,0,0,0,0,0,0,0,0,0,0,0,0,0,0,345,345,345,345,345,345,345,345,345,345,345,345,345,344,344,344,344,344,344,344,344,344,344,344,344,345,345,345,345,345,345,345,346,346,346,346,346,347,347,347,347,347,347,347,346,346,346,346,346,346,346,345,345,345,345,345,345,345,345,345,345,345,345,345,345,345,345,345,345,345,345,344,344,344,344,344,344,344,344,344,344,344,344,344,344,344,344,344,344,345,345,345,345,345,345,345,345,345,345,345,345,345,345,345,345,345,344,344,344,344,344,344,344,344,344,344,344,344,344,344,344,344,344,345,345,345,345,345,345,345,345,345,345,345,345,345,345,345,345,344,344,344,344,344,344,344,344,345,345,345,345,345,345,345,345,345,407,407,408,408,408,408,408,408,408,408,408,408,408,408,408,407,407,407,407,407,407,407,407,407,407,407,407,407,407,407,407,407,407,408,408,408,408,408,408,408,408,408,408,408,408,407,407,407,407,407,407,407,407,407,408,408,408,408,408,408,407,407,407,407,407,407,407,407,407,407,407,407,407,407,407,407,407,407,407,407,407,407,407,407,407,407,407,407,407,407,407,407,407,408,407,407,407,407,407,407,407,407,407,407,407,407,407,407,407,407,407,407,407,407,407,407,407,407,407,407,407,407,407,407,407,407,407,407,407,407,407,407,407,407,407,407,407,407,407,407,407,407,407,407,406,406,406,406,406,407,407,407,407,407,407,407,407,407,407,407,407,407,407,407,407,407,407,407,407,407,407,407,407,407,407,407,407,407,407,407,407,407,407,407,407,407,407,407,407,407,407,407,407,406,406,406,406,406,407,407,407,407,407,407,407,407,407,407,408,408,408,408,408,408,408,408,408,408,407,407,407,407,407,407,407,407,407,407,407,407,407,407,407,407,407,407,407,407,407,407,407,407,407,406,406,406,406,406,406,406,406,406,406,406,406,406,406,407,407,407,407,407,407,407,407,407,407,407,407,407,407,407,407,407,406,406,406,406,406,406,406,406,406,406,406,406,406,406,406,406,406,406,406,406,406,406,406,406,406,406,406,406,406,406,406,406,406,406,406,406,405,405,405,404,404,404,403,402,402,401,400,400,399,397,397,396,394,394,392,391,391,389,387,387,384,383,383,382,380,380,379,378,378,377,376,375,374,373,372,372,370,369,369,367,366,366,364,362,362,361,360,360,359,359,359,358,357,357,357,356,355,355,354,354,0,0,0,0,348,346,346,346,0,0,0,0,0,0,0,0,0,0,0,0,0,0,0,0,0,0,0,0,0,0,319,318,318,318
241,241,243,243,244,244,245,246,248,248,248,249,250,251,251,251,252,252,252,253,254,254,254,256,258,260,262,265,266,266,269,268,268,268,269,0,287,287,287,287,288,288,288,288,288,288,288,288,288,288,288,289,289,289,290,291,295,295,295,296,297,299,299,299,300,300,300,301,301,301,302,303,304,304,305,306,307,307,308,310,310,311,311,312,313,314,314,315,316,317,317,319,321,0,0,0,0,0,0,356,356,355,355,355,354,354,354,354,354,354,355,355,356,356,356,358,359,361,362,362,364,366,367,367,369,370,372,372,373,375,376,376,378,378,380,380,382,0,0,0,0,397,397,399,401,401,402,402,402,403,404,405,405,406,406,406,406,407,407,407,407,407,407,407,407,407,407,407,407,407,407,407,407,407,407,407,407,0,0,0,0,0,0,0,0,0,0,0,0,0,0,0,0,0,0,0,0,0,0,0,0,345,345,345,345,345,345,345,345,345,345,345,344,344,344,344,344,344,344,344,344,344,344,344,344,344,345,345,345,345,345,346,346,346,346,346,346,346,346,346,346,346,346,346,346,345,345,345,345,345,345,345,345,345,345,345,345,345,345,345,345,345,345,345,345,345,345,345,345,345,344,344,344,344,344,344,344,344,344,344,344,344,344,344,344,344,344,344,345,345,345,345,345,345,345,345,345,345,345,345,345,345,345,345,344,344,344,344,344,344,344,344,344,344,344,344,344,344,344,344,344,344,345,345,345,345,345,345,345,345,345,345,345,345,345,345,345,345,344,344,344,344,344,344,344,344,345,345,345,345,345,345,345,345,345,407,407,408,408,408,408,408,408,408,408,408,408,408,408,407,407,407,407,407,407,407,407,407,407,407,407,407,407,407,407,407,407,407,408,408,408,408,408,408,408,408,408,408,408,408,408,407,407,407,407,407,407,407,408,408,408,408,408,408,408,407,407,407,407,407,407,407,407,407,407,407,407,407,407,407,407,407,407,407,407,407,407,407,407,407,407,407,407,407,407,407,407,407,408,407,407,407,407,407,407,407,407,407,407,407,407,407,407,407,407,407,407,407,407,407,407,407,407,407,407,407,407,407,407,407,407,407,407,407,407,407,407,407,407,407,407,407,407,407,407,407,407,407,407,406,406,406,406,406,407,407,407,407,407,407,407,407,407,407,407,407,407,407,407,407,407,407,407,407,407,407,407,407,407,407,407,407,407,407,407,407,407,407,407,407,407,407,407,407,407,407,407,407,406,406,406,406,406,407,407,407,407,407,407,407,407,407,407,408,408,408,408,408,408,408,408,408,407,407,407,407,407,407,407,407,407,407,407,407,407,407,407,407,407,407,407,407,407,407,407,407,407,407,406,406,406,406,406,406,406,406,406,406,406,406,406,406,406,406,406,406,407,407,407,407,407,407,407,407,407,407,407,407,407,407,406,406,406,406,406,406,406,406,406,406,406,406,406,406,407,407,407,407,407,407,406,406,406,406,406,406,406,406,406,406,406,406,406,406,406,405,405,405,404,404,404,403,402,402,401,400,400,399,398,398,396,395,395,393,391,391,389,387,387,384,382,382,381,380,380,379,378,378,377,376,376,374,373,372,372,370,369,369,367,365,365,364,362,362,361,360,360,359,359,359,358,357,357,357,356,355,355,354,353,353,351,350,350,348,346,346,346,346,0,0,0,0,0,0,0,0,0,0,0,0,0,0,0,0,0,0,0,0,0,319,318,318,318
241,241,243,243,244,244,245,246,247,248,248,249,250,251,251,251,252,252,252,253,254,254,254,256,258,260,0,0,0,0,0,0,0,0,0,0,287,287,287,287,288,288,288,288,289,289,289,289,289,289,289,289,289,289,290,291,295,295,295,296,297,299,299,299,300,300,300,301,301,301,302,303,304,304,305,306,307,307,308,310,310,311,311,312,313,314,314,315,316,317,317,319,0,0,0,0,0,0,0,357,357,356,356,356,355,355,355,355,355,355,356,356,356,357,357,358,359,361,362,362,364,366,367,367,369,370,372,372,373,375,376,376,378,378,380,380,382,0,0,0,0,397,397,400,401,401,402,402,402,403,404,405,405,406,406,406,406,407,407,407,407,407,407,407,407,407,407,407,407,407,407,407,407,407,407,0,0,0,0,0,0,0,0,0,0,0,0,0,0,0,0,0,0,0,0,0,0,0,0,0,0,345,345,345,345,345,345,345,345,345,345,345,345,345,345,344,344,344,344,344,344,344,344,344,344,344,345,345,345,345,345,345,345,346,346,346,346,346,346,346,345,345,345,345,345,345,345,345,345,345,345,345,344,344,344,345,345,345,345,345,345,345,345,345,345,345,345,345,345,345,344,344,344,344,344,344,344,344,344,344,344,344,344,344,344,344,344,344,345,345,345,345,345,345,345,345,345,345,345,345,345,345,345,345,344,344,344,344,344,344,344,344,344,344,344,344,344,344,344,344,344,344,345,345,345,345,345,345,345,345,345,345,345,345,345,345,345,345,345,345,345,345,345,345,345,345,345,345,345,345,345,345,345,345,345,407,407,408,408,408,408,408,408,408,408,408,408,408,408,407,407,407,407,407,407,407,407,407,407,407,407,407,407,407,407,407,407,407,407,408,408,408,408,408,408,408,408,408,408,408,408,407,407,407,407,407,407,407,407,407,407,407,407,407,407,407,407,407,407,407,407,407,407,407,407,407,407,407,407,407,407,407,407,407,407,407,407,407,407,407,407,407,407,407,407,407,407,407,407,407,407,407,407,407,407,407,407,407,407,407,407,407,407,407,407,407,407,407,407,407,407,407,407,407,407,407,407,407,407,407,407,407,407,407,407,407,407,407,407,407,407,407,407,407,407,407,407,407,407,406,406,406,406,406,407,407,407,407,407,407,407,407,407,407,407,407,407,407,407,407,407,407,407,407,407,407,407,407,407,407,407,407,407,407,407,407,407,407,407,407,407,407,407,407,407,407,407,407,406,406,406,406,406,406,406,407,407,407,407,407,407,407,407,408,408,408,408,408,408,408,408,408,407,407,407,407,407,407,407,407,407,407,407,407,407,407,407,407,407,407,407,407,407,407,407,407,407,407,406,406,406,406,406,406,406,406,406,406,406,406,406,406,406,406,406,406,407,407,407,407,407,407,407,407,407,407,407,407,407,407,407,407,406,406,406,406,407,407,407,407,407,407,407,407,407,407,407,407,407,407,407,407,407,406,406,406,406,406,406,406,406,406,406,406,406,405,405,405,404,404,404,403,402,402,401,400,400,399,398,398,397,395,395,394,392,392,390,387,387,384,382,382,381,380,380,379,378,378,377,376,376,374,373,372,372,370,369,369,367,365,365,364,362,362,361,360,360,359,359,359,358,357,357,357,356,355,355,354,353,353,351,350,350,348,347,347,346,346,347,347,347,0,0,0,0,0,0,0,0,0,0,0,0,0,0,0,0,0,0,0,0,0,0
0,0,0,0,245,245,245,246,247,248,248,249,250,251,251,251,252,252,252,252,0,0,0,0,0,0,0,0,0,0,277,277,280,280,283,284,285,286,286,287,288,288,288,288,289,289,289,289,289,289,288,288,289,289,290,291,295,295,295,295,296,296,297,298,299,299,299,300,301,301,301,302,303,303,304,306,307,307,308,309,310,311,311,311,313,314,314,315,316,317,317,318,0,0,0,361,360,360,359,357,357,356,356,356,355,355,355,355,355,355,356,356,356,357,357,358,359,361,362,362,364,366,367,367,369,370,372,372,373,375,376,376,377,378,380,380,382,384,391,391,391,394,397,400,401,401,402,402,402,403,404,405,405,406,406,406,406,407,407,407,407,407,408,407,407,407,407,407,407,407,407,407,407,407,0,0,0,0,0,0,0,0,0,0,0,0,0,0,0,0,0,0,0,0,0,0,0,0,0,0,0,345,345,345,345,345,345,345,345,345,345,345,345,345,345,344,344,344,344,344,344,344,344,344,344,344,345,345,345,345,345,345,345,346,346,346,346,346,346,346,345,345,345,345,345,345,345,345,345,345,345,345,344,344,344,345,345,345,345,345,345,345,345,345,345,345,345,345,345,345,345,345,345,345,344,344,344,344,344,344,344,344,344,344,344,344,344,344,345,345,345,345,345,345,345,345,345,345,345,345,345,345,345,345,345,344,344,344,344,344,344,344,344,344,344,344,344,344,344,344,344,344,345,345,345,345,345,345,345,345,345,345,345,345,345,345,345,345,345,345,345,345,345,345,345,345,345,345,345,345,345,345,345,345,407,407,407,407,408,408,408,408,408,408,408,408,408,408,408,407,407,407,407,407,407,407,407,407,407,407,407,407,407,407,407,407,407,407,407,408,408,408,408,408,408,408,408,408,407,407,407,407,407,407,407,407,407,407,407,407,407,407,407,407,407,407,407,407,407,407,407,407,407,407,407,407,407,407,407,407,407,407,407,407,407,407,407,407,407,407,407,407,407,407,407,407,407,407,407,407,407,407,407,407,407,407,407,407,407,407,407,407,407,407,407,407,407,407,407,407,407,407,407,407,407,407,407,407,407,407,407,407,407,407,407,407,407,407,407,407,407,407,407,407,407,407,407,407,407,407,407,407,407,407,407,407,407,407,407,407,407,407,407,407,407,407,407,407,407,407,407,407,407,407,407,407,407,407,407,407,407,407,407,407,407,407,407,407,407,407,407,407,407,407,407,407,407,407,407,407,406,406,406,406,406,407,407,407,407,407,407,407,407,408,408,408,408,408,408,408,408,408,407,407,407,407,407,407,407,407,407,407,407,407,407,407,407,407,407,407,407,407,407,407,407,407,407,407,406,406,406,406,406,406,406,406,406,406,406,406,406,406,406,406,406,406,406,406,407,407,407,407,407,407,407,407,407,407,407,407,407,407,406,406,406,406,407,407,407,407,407,407,407,407,407,407,407,407,407,407,407,407,407,406,406,406,406,406,406,406,406,406,406,406,406,405,405,405,404,404,404,403,402,402,401,400,400,399,398,398,397,395,395,394,392,392,390,387,387,384,382,382,381,380,380,379,378,378,377,376,376,374,373,372,371,370,369,369,367,365,365,364,363,363,362,361,361,360,359,359,358,357,357,357,356,356,356,355,354,354,353,351,351,350,349,349,348,347,347,347,347,0,0,0,0,0,0,0,0,0,0,0,0,0,0,0,0,0,0,0,0,0,0
240,241,241,242,244,244,245,0,0,0,249,249,250,251,251,251,251,252,252,252,253,0,0,274,274,274,274,274,274,274,275,277,279,279,283,284,285,286,286,287,288,288,288,288,289,289,289,289,289,289,288,288,289,289,289,290,290,291,292,295,296,296,296,297,298,298,299,300,301,301,301,302,303,303,304,305,306,306,307,308,309,309,310,311,312,312,313,315,315,315,316,318,363,363,363,361,360,360,359,358,358,357,356,356,356,356,356,356,356,356,356,356,357,358,359,359,360,361,363,363,364,366,367,367,369,370,372,372,373,374,376,376,377,378,380,380,381,383,387,390,390,394,398,400,402,402,402,403,403,403,404,405,405,406,406,406,406,407,407,407,407,407,407,407,407,407,407,407,407,407,407,407,407,407,0,0,0,0,0,0,0,0,0,0,0,0,0,0,0,0,0,0,0,0,0,0,0,0,0,0,0,345,344,344,344,344,344,345,345,345,345,345,345,345,345,344,344,344,344,344,344,344,344,344,344,344,344,345,345,345,345,345,345,345,345,345,345,345,345,345,345,345,345,345,345,345,344,344,344,344,344,344,344,344,344,344,344,345,345,345,345,345,345,345,345,345,345,345,345,345,345,345,345,345,344,344,344,344,344,344,344,344,344,344,344,344,344,344,345,345,345,345,345,345,345,345,345,345,345,345,345,345,345,345,345,344,344,344,344,344,344,344,344,344,344,344,344,344,344,344,344,344,344,345,345,345,345,345,345,345,345,345,345,345,345,345,345,345,345,345,345,345,345,345,345,345,345,345,345,345,345,345,345,345,407,407,407,407,408,408,408,408,408,408,408,408,408,408,408,407,407,407,407,407,407,407,407,407,407,407,407,407,407,407,407,407,407,407,408,408,408,408,408,408,408,408,408,408,407,407,407,407,407,407,407,407,407,407,407,408,408,408,408,408,407,407,407,407,407,407,407,407,407,407,407,407,407,407,407,407,407,407,407,407,407,407,407,407,407,407,407,407,407,408,408,408,407,407,407,407,407,407,407,407,407,407,407,407,407,407,407,407,407,407,407,407,407,407,407,407,407,407,407,407,407,407,407,407,407,407,407,407,407,407,407,407,407,407,407,407,407,407,407,407,407,407,407,407,407,407,407,407,407,407,407,407,407,407,407,407,407,407,407,407,407,407,407,407,407,407,407,407,407,407,407,407,407,407,407,407,407,407,407,407,407,407,407,407,407,407,407,407,407,407,407,407,407,407,407,407,406,406,406,407,407,407,407,407,407,407,407,407,407,408,408,408,408,408,408,408,407,407,407,407,407,407,407,407,407,407,407,407,407,407,407,407,407,407,407,407,407,407,407,407,407,407,407,407,406,406,406,406,406,406,406,406,406,406,406,406,406,406,406,406,406,406,406,406,406,407,407,407,407,407,407,407,407,407,407,407,407,407,407,407,407,407,407,407,407,407,407,407,407,407,407,407,407,407,407,407,407,407,407,407,406,406,406,406,406,406,406,406,406,406,406,405,405,405,404,404,404,403,402,402,402,401,401,400,399,399,397,396,396,395,395,0,390,387,387,384,382,382,381,380,380,379,378,378,377,376,376,374,373,372,371,370,369,369,367,366,366,364,363,363,362,361,361,360,359,359,358,357,357,357,356,356,356,355,354,354,353,351,351,350,349,349,348,347,347,347,347,0,0,0,0,0,0,0,0,0,0,0,0,0,0,0,0,0,0,0,0,0,0
240,241,241,242,244,244,0,0,0,0,249,249,250,0,0,251,251,252,252,252,253,0,0,274,274,274,274,274,274,274,275,277,279,279,283,284,286,286,286,287,288,288,288,288,289,289,289,289,289,289,289,289,289,289,289,290,290,291,292,0,0,296,296,297,298,298,299,300,301,301,301,302,303,303,304,305,306,306,307,308,309,309,310,311,312,312,313,315,315,315,316,364,363,363,363,362,361,361,360,359,359,359,358,358,357,357,357,357,357,357,357,357,357,358,359,359,360,362,363,363,364,366,367,367,369,370,372,372,373,374,376,376,377,378,379,379,381,383,387,390,390,394,398,401,402,402,402,403,404,404,404,405,405,406,406,406,406,407,407,407,407,407,407,407,407,408,407,407,407,407,407,407,407,407,0,0,0,0,0,0,0,0,0,0,0,0,0,0,0,0,0,0,0,0,0,0,0,0,0,0,0,344,344,344,344,344,344,344,344,344,344,344,344,345,345,344,344,344,344,344,344,344,344,344,344,344,344,345,345,345,345,345,345,345,345,345,345,345,345,345,345,345,345,345,345,344,344,344,344,344,344,344,344,344,344,344,344,345,345,345,345,345,345,345,345,345,345,345,345,345,345,345,345,345,345,345,344,344,344,344,344,344,344,344,344,344,344,345,345,345,345,345,345,345,345,345,345,345,345,345,345,345,345,345,345,344,344,344,344,344,344,344,344,344,344,344,344,344,344,344,344,344,344,344,344,345,345,345,345,345,345,345,345,345,345,345,345,345,345,345,345,345,345,345,345,345,345,345,345,345,345,345,345,345,407,407,407,407,408,408,408,408,408,408,408,408,408,408,408,407,407,407,407,407,407,407,407,407,407,407,407,407,407,407,407,407,407,407,408,408,408,408,408,408,408,408,408,407,407,407,407,407,407,407,407,407,407,407,407,408,408,408,408,408,407,407,407,407,407,407,407,407,407,407,407,407,407,407,407,407,407,407,407,407,407,407,407,407,407,407,407,407,407,408,408,408,407,407,407,407,407,407,407,407,407,407,407,407,407,407,407,407,407,407,407,407,407,407,407,407,407,407,407,407,407,407,407,407,407,407,407,407,407,407,407,407,407,407,408,408,408,407,407,407,407,407,407,407,407,407,407,407,407,407,407,407,407,407,407,408,408,408,408,408,408,407,407,407,407,407,407,407,407,407,407,407,407,407,407,407,407,407,407,407,407,407,407,407,407,407,407,407,407,407,407,407,407,407,407,407,407,407,407,407,407,407,407,407,407,407,407,407,407,408,408,408,408,408,408,408,407,407,407,407,407,407,407,407,407,407,407,407,407,407,407,407,407,407,407,407,407,407,407,407,407,407,407,407,406,406,406,406,406,406,406,406,406,406,406,406,406,406,406,406,406,406,406,406,406,407,407,407,407,407,407,407,407,407,407,407,407,407,407,407,407,407,407,407,407,407,407,407,407,407,407,407,407,407,407,407,407,407,407,406,406,406,406,406,406,406,406,406,406,406,406,406,406,405,405,405,404,403,402,402,402,401,401,400,399,399,398,397,397,0,0,0,0,0,0,384,382,382,381,380,380,379,378,378,377,376,376,374,373,372,372,370,369,369,367,366,366,364,363,363,362,361,361,360,359,359,359,358,358,358,357,356,356,356,355,355,354,353,353,352,351,350,350,350,350,350,350,0,0,0,0,0,0,0,0,0,0,0,0,0,0,0,0,0,0,0,0,0,0
240,241,241,242,244,244,0,0,0,0,248,248,249,250,250,251,251,252,252,252,253,0,0,274,274,274,274,274,274,274,275,277,279,279,282,284,286,286,286,287,288,288,288,288,289,289,289,289,289,289,289,289,289,289,289,289,289,290,291,292,292,294,295,297,298,298,299,300,300,300,301,302,303,303,304,305,305,305,307,307,308,308,309,310,311,311,313,314,315,315,316,364,363,363,363,363,362,362,361,361,361,360,359,359,358,358,358,358,357,357,358,358,358,359,360,360,361,362,363,363,365,366,368,368,369,370,372,372,373,374,376,376,377,378,379,379,381,383,387,0,0,399,399,401,402,402,403,403,404,404,405,405,405,406,406,407,407,407,407,407,407,407,407,407,407,408,408,407,407,407,407,0,0,0,0,0,0,0,0,0,0,0,0,0,0,0,0,0,0,0,0,0,0,0,0,0,0,0,0,0,0,344,344,344,344,344,344,344,344,344,344,344,344,345,345,344,344,344,344,344,344,344,344,344,344,344,344,345,345,345,345,345,345,345,345,345,345,345,345,345,345,345,345,345,345,344,344,344,344,344,344,344,344,344,344,344,344,345,345,345,345,345,345,345,345,345,345,345,345,345,345,345,345,345,345,345,344,344,344,344,344,344,344,344,344,345,345,345,345,345,345,345,345,346,346,346,346,345,345,345,345,345,345,345,345,344,344,344,344,344,344,344,344,344,344,344,344,344,344,344,344,344,344,344,344,345,345,345,345,345,345,345,345,345,345,345,345,345,345,345,345,345,345,345,345,345,345,345,345,345,345,345,345,346,0,408,407,407,408,407,407,408,408,408,408,408,408,408,408,407,407,407,407,407,407,407,407,407,407,407,407,407,407,407,407,407,407,407,408,408,408,408,408,408,408,408,408,407,407,407,407,407,407,407,407,407,408,407,407,408,408,408,408,408,407,407,407,407,407,407,407,407,407,407,407,407,407,407,407,407,407,407,407,407,407,407,407,407,407,407,407,408,408,408,408,408,407,407,408,408,407,407,407,407,407,407,407,407,407,407,407,407,407,407,407,407,407,407,407,407,407,407,407,407,407,407,407,407,407,407,407,407,407,407,407,407,407,407,408,408,408,407,407,407,407,407,407,407,407,407,407,407,407,407,407,407,407,407,407,408,408,408,408,408,408,407,407,407,407,407,407,407,407,407,407,407,407,407,407,407,407,407,407,407,407,407,407,407,407,407,407,407,407,407,407,407,407,407,407,407,407,407,407,407,407,407,407,407,407,407,407,407,407,408,408,408,408,408,408,408,407,407,407,407,407,407,407,407,407,407,407,407,407,407,407,407,407,407,407,407,407,407,407,407,407,407,407,407,406,406,406,406,406,406,406,406,406,406,406,406,406,406,406,406,406,406,406,406,406,406,407,407,407,407,407,407,407,407,407,407,407,407,407,407,407,407,407,407,407,407,407,408,408,408,408,408,407,407,407,407,407,407,407,406,406,406,406,406,406,406,406,406,406,406,406,406,406,406,405,405,404,404,403,403,402,402,402,401,400,400,399,398,398,0,0,0,0,0,0,0,382,382,381,380,380,379,378,378,377,376,376,374,373,372,372,370,369,369,368,366,366,365,363,363,362,361,361,360,360,360,359,359,358,358,358,357,357,357,355,355,354,354,354,353,352,352,352,351,351,0,0,0,0,0,0,0,0,0,0,0,0,0,0,0,0,0,0,0,0,0,0,0,0
240,241,241,242,244,244,245,246,247,248,248,248,249,250,250,250,251,251,251,252,0,0,0,274,274,274,274,274,274,275,276,276,276,279,282,0,0,287,287,287,287,287,287,288,288,288,288,289,289,288,288,288,288,288,288,289,289,289,290,292,292,293,294,296,297,297,298,299,300,300,301,302,302,302,303,304,305,305,306,307,308,308,309,310,311,311,313,314,365,365,364,364,364,363,363,363,362,362,361,361,361,360,359,359,358,358,358,358,357,357,358,358,358,359,360,360,361,362,363,363,365,366,368,368,369,370,372,372,373,374,376,376,377,378,379,379,381,383,387,0,0,399,399,401,402,402,403,403,404,404,405,405,405,406,406,407,407,407,407,407,407,407,407,407,407,408,408,407,407,407,407,0,0,0,0,0,0,0,0,0,0,0,0,0,0,0,0,0,0,0,0,0,0,0,0,0,0,0,0,0,0,344,344,344,344,344,344,344,344,344,344,344,344,345,345,344,344,344,344,344,344,344,344,344,344,344,344,345,345,345,345,345,345,345,345,345,345,345,345,345,345,345,345,344,344,344,344,344,344,344,344,344,344,344,344,344,344,345,345,345,345,345,345,345,345,345,345,345,345,345,345,345,345,345,345,345,345,344,344,344,344,344,344,344,344,345,345,345,345,345,345,345,346,346,346,346,346,345,345,346,345,345,345,345,345,345,345,344,344,344,344,344,344,344,344,344,344,344,344,344,344,344,344,344,344,345,345,345,345,345,345,345,346,346,346,346,345,345,345,345,345,345,345,345,345,345,345,345,345,345,345,346,346,346,0,0,407,407,408,407,407,408,408,408,408,408,408,408,408,407,407,407,407,407,407,407,407,407,407,407,407,407,407,407,407,407,407,407,408,408,408,408,408,408,408,408,408,407,407,407,407,407,407,407,407,407,408,407,407,408,408,408,408,408,408,407,407,407,407,407,407,407,407,407,407,407,407,407,407,407,407,407,407,407,407,407,407,407,407,408,408,408,408,408,408,408,408,407,407,407,407,408,407,407,407,407,407,407,407,407,407,407,407,407,407,407,407,407,407,407,407,407,407,407,407,407,407,407,407,407,407,407,407,407,407,407,407,407,408,408,408,407,407,407,407,407,407,407,407,407,407,407,407,407,407,407,407,408,408,408,408,408,408,408,408,408,407,407,407,407,407,407,407,407,407,407,407,407,407,407,407,407,407,407,407,407,407,407,407,407,407,407,407,407,407,407,407,407,407,407,407,407,407,407,407,407,407,407,407,407,407,407,407,408,408,408,408,408,408,408,407,407,407,407,407,407,407,407,407,407,407,407,407,407,407,407,407,407,407,407,407,407,407,407,407,407,407,407,407,407,406,406,406,406,406,406,406,406,406,406,406,406,406,406,406,406,406,406,406,406,406,406,407,407,407,407,407,407,407,407,407,407,407,407,407,407,407,407,407,407,407,408,408,408,408,408,407,407,407,407,407,407,407,406,406,406,406,406,406,406,406,406,406,406,406,406,406,405,405,405,404,404,403,403,402,402,402,401,400,400,399,398,398,0,0,0,0,0,0,0,382,382,381,380,380,379,378,378,377,376,376,374,373,372,372,370,369,369,368,366,366,365,363,363,362,361,361,360,360,360,359,359,358,358,358,357,357,357,355,355,354,354,354,353,352,352,352,351,351,0,0,0,0,355,355,355,0,0,0,0,0,0,0,0,0,0,0,0,0,0,0,0,0
240,241,241,242,244,244,245,246,247,248,248,0,250,250,250,250,251,251,251,0,0,0,0,0,0,274,274,275,275,275,276,276,276,0,0,0,0,287,287,287,287,287,287,287,287,287,288,288,288,288,288,288,288,288,288,288,288,289,290,290,290,292,293,295,295,297,298,299,300,300,301,301,302,302,303,304,304,304,305,306,307,307,308,309,311,311,365,365,365,365,365,365,364,364,364,364,363,363,362,362,361,361,360,359,359,359,358,358,358,358,358,358,359,359,360,360,361,362,364,364,365,366,368,368,369,371,372,372,373,374,376,376,377,378,380,380,381,384,387,0,0,0,401,401,402,402,403,404,404,404,405,405,405,406,406,407,407,407,407,407,407,407,408,408,408,408,408,407,407,0,0,0,0,0,0,0,0,0,0,0,0,0,0,0,0,0,0,0,0,0,0,0,0,0,0,0,0,0,0,344,344,344,344,344,344,344,344,344,344,344,344,344,344,345,345,344,344,344,344,344,344,344,344,344,344,344,344,345,345,345,345,345,345,345,345,345,345,345,345,345,345,345,345,344,344,344,344,344,344,344,344,344,344,344,344,344,344,345,345,345,345,345,345,345,345,345,345,345,345,345,345,345,345,345,345,345,345,344,344,344,344,344,344,344,344,345,345,345,345,345,345,345,346,346,346,346,346,345,345,345,345,345,345,345,345,345,345,344,344,344,344,344,344,344,344,344,344,344,344,344,344,344,344,344,344,344,345,345,345,345,345,345,346,346,346,345,345,345,345,345,345,345,345,345,345,345,345,345,345,345,345,346,346,346,346,0,407,407,408,407,407,408,408,408,408,408,408,408,408,407,407,407,407,407,407,407,407,407,407,407,407,407,407,407,407,407,407,407,408,408,408,408,408,408,408,408,408,407,407,407,407,407,407,408,408,408,408,408,408,408,408,408,408,408,408,407,407,407,407,407,407,407,407,407,407,407,407,407,407,407,407,407,407,407,407,407,407,408,408,408,408,408,408,408,408,408,408,407,407,407,407,408,407,407,407,407,407,407,407,407,407,407,407,407,407,407,407,407,407,407,407,407,407,407,407,407,407,407,407,407,407,407,407,407,407,407,407,407,408,408,408,407,407,408,407,407,407,407,407,407,407,407,407,407,407,407,408,408,408,408,408,408,408,408,408,408,408,407,407,407,407,407,407,407,407,407,407,407,407,407,407,407,407,407,407,407,407,407,407,407,407,407,407,407,407,407,407,407,407,407,407,407,407,407,407,407,407,407,407,407,407,407,408,408,408,408,408,408,408,407,407,407,407,407,407,407,407,407,407,407,407,407,407,407,407,407,407,407,407,407,407,407,407,407,407,407,407,407,407,407,407,406,406,406,406,406,406,406,406,406,406,406,406,406,406,406,406,406,406,406,406,406,407,407,407,407,407,407,407,407,407,407,407,407,407,407,407,407,407,407,408,408,408,408,408,408,407,407,407,407,407,407,407,406,406,406,406,406,406,406,406,406,406,406,406,406,406,405,405,405,404,404,403,403,402,402,402,401,401,400,400,399,397,397,397,0,0,0,0,384,382,382,381,380,380,379,377,377,377,375,375,374,373,372,372,370,369,369,368,366,366,365,364,364,363,362,362,361,360,360,360,359,359,359,358,358,358,357,357,357,356,356,356,356,354,353,353,353,353,356,0,0,0,355,355,355,0,0,0,0,0,0,0,0,0,0,0,0,0,0,0,0,0
240,241,241,242,243,243,244,245,247,248,248,248,249,250,250,250,251,251,251,0,0,0,272,272,272,272,272,273,273,273,276,276,276,0,0,0,0,287,286,286,287,287,287,287,287,287,288,288,288,288,288,288,288,288,288,288,288,289,290,290,290,292,293,295,295,0,299,299,300,300,301,301,302,302,303,304,304,304,305,306,307,307,308,309,0,0,365,365,365,365,365,365,365,364,364,364,364,364,363,363,362,362,361,360,360,360,359,359,359,359,359,359,359,360,361,361,362,363,364,364,366,367,368,368,370,371,372,372,374,375,376,376,377,378,380,380,382,388,388,0,0,0,401,401,402,402,403,404,405,405,405,406,406,406,406,407,407,407,407,407,407,407,408,408,408,408,408,408,0,0,0,0,0,0,0,0,0,0,0,0,0,0,0,0,0,0,0,0,0,0,0,0,0,0,0,0,0,0,0,344,344,344,344,344,344,344,344,344,344,344,344,344,344,345,345,345,344,344,344,344,344,344,344,344,344,344,344,345,345,345,345,345,345,345,345,345,345,345,345,345,345,345,344,344,344,344,344,344,344,344,344,344,344,344,344,344,344,345,345,345,345,345,345,345,345,345,345,345,345,345,345,345,345,345,345,345,345,345,345,345,345,345,345,345,345,345,345,345,345,345,345,345,346,346,346,346,346,346,345,345,345,345,345,345,345,345,345,344,344,344,344,344,344,344,344,344,344,344,344,344,344,344,344,344,344,344,345,345,345,345,345,345,346,345,345,345,345,345,345,345,345,345,345,345,345,345,345,345,345,345,345,346,346,346,346,0,407,407,408,407,407,408,408,408,408,408,408,408,408,407,407,407,407,407,407,407,407,407,407,407,407,407,407,407,407,407,407,407,408,408,408,408,408,408,408,408,408,407,407,407,407,407,407,408,408,408,408,408,408,408,408,408,408,408,408,407,407,407,407,407,407,407,407,407,407,407,407,407,407,407,407,407,407,407,407,407,407,408,408,408,408,408,408,408,408,408,407,407,407,407,407,408,407,407,407,407,407,407,407,407,407,407,407,407,407,407,407,407,407,407,407,407,407,407,407,407,407,407,407,407,407,407,407,407,407,407,407,407,408,408,408,407,407,408,407,407,407,407,407,407,407,407,407,407,407,407,408,408,408,408,408,408,408,408,408,408,408,407,407,407,407,407,407,407,407,407,407,407,407,407,407,407,407,407,407,407,407,407,407,407,407,407,407,407,407,407,407,407,407,407,407,407,407,407,407,407,407,407,407,407,407,407,408,408,408,408,408,408,408,407,407,407,407,407,407,407,407,407,407,407,407,407,407,407,407,407,407,407,407,407,407,407,407,407,407,407,407,407,407,407,407,407,407,406,406,406,406,406,406,406,406,406,406,406,406,406,406,406,406,406,406,406,407,407,407,407,407,407,407,407,407,407,407,407,407,407,407,407,407,407,408,408,408,408,408,408,407,407,407,407,407,407,407,407,406,406,406,406,406,406,406,406,406,406,406,406,406,406,405,405,405,404,403,403,403,402,402,402,401,400,400,399,397,397,397,0,0,0,0,384,382,382,381,380,380,379,377,377,377,375,375,374,373,372,372,370,369,369,368,367,367,366,365,365,364,363,363,362,361,361,361,361,360,360,359,359,359,359,358,358,358,357,356,356,356,356,356,356,356,356,357,357,357,357,357,357,357,0,0,0,0,0,0,0,0,0,0,0,0,0,0,0,0
240,241,241,242,243,243,244,245,246,246,247,248,249,250,250,250,251,267,267,268,268,269,270,270,270,270,271,271,271,271,271,271,0,275,275,275,282,282,284,285,286,286,286,286,286,286,287,287,287,287,287,287,287,287,287,287,287,288,289,289,290,291,292,295,295,0,298,298,298,299,300,301,302,302,302,303,303,304,305,306,306,306,308,309,0,365,365,365,365,365,365,365,365,364,364,364,364,364,363,363,362,362,361,360,360,360,359,359,359,359,359,359,359,360,361,361,362,363,364,364,366,367,368,368,370,371,372,372,374,375,376,376,377,378,380,380,382,388,388,0,0,0,401,401,402,402,403,404,405,405,405,406,406,406,406,407,407,407,407,407,407,407,408,408,408,408,407,407,0,0,0,0,0,0,0,0,0,0,0,0,0,0,0,0,0,0,0,0,0,0,0,0,0,0,0,0,0,0,0,344,344,344,344,344,344,344,344,344,344,344,344,344,344,345,345,345,344,344,344,344,344,344,344,344,344,344,345,345,345,345,345,345,345,345,345,345,345,345,345,345,345,345,344,344,344,344,344,344,344,344,344,344,344,344,344,344,344,345,345,345,345,345,345,345,345,345,345,345,345,345,345,345,345,345,345,345,345,345,345,345,345,345,345,345,345,345,345,345,345,345,345,345,346,346,346,346,346,346,345,345,345,345,345,345,345,345,345,344,344,344,344,344,344,344,344,344,344,344,344,344,344,344,344,344,344,345,345,345,345,345,345,345,346,345,345,345,345,345,345,345,345,345,345,345,345,345,345,345,345,345,0,0,346,346,0,408,408,408,408,408,408,408,408,408,408,408,408,408,408,407,407,407,407,407,407,407,407,407,407,407,407,407,407,407,407,407,407,408,408,408,408,408,408,408,408,408,408,408,407,407,407,408,408,408,408,408,408,408,408,408,408,408,408,408,408,407,407,407,407,407,407,407,407,407,407,407,407,407,407,407,407,407,407,407,408,408,408,408,408,408,408,408,408,408,408,408,407,407,407,407,407,407,407,407,407,407,407,408,408,408,407,407,408,408,408,408,407,407,407,407,407,407,407,407,407,407,407,407,407,407,407,407,407,407,407,407,407,407,408,408,408,408,408,408,407,407,407,407,407,407,407,407,407,407,407,407,408,408,408,408,408,408,408,408,408,408,408,408,408,407,407,407,407,407,407,407,407,407,407,407,408,407,407,407,407,407,407,407,407,407,407,407,407,407,407,407,407,407,407,407,407,407,407,407,407,407,407,407,407,407,407,407,408,408,408,408,408,408,408,407,407,407,407,407,407,407,407,407,407,407,407,407,407,407,407,407,407,407,407,407,407,407,407,407,407,407,407,407,407,407,407,407,407,406,406,406,406,406,406,406,406,406,406,406,406,406,406,406,406,406,406,406,407,407,407,407,407,407,407,407,407,407,407,407,407,407,407,407,407,407,408,408,408,408,408,408,407,407,407,407,407,407,407,406,406,406,406,406,406,406,406,406,406,406,406,406,406,406,405,405,405,404,403,403,403,402,402,402,401,400,400,399,397,397,395,395,391,388,388,384,382,382,381,380,380,378,377,377,376,375,375,374,373,372,372,371,369,369,368,367,367,366,365,365,364,364,364,363,362,362,362,362,361,361,361,361,361,361,360,360,360,359,359,359,358,358,358,358,357,357,357,357,357,357,357,357,357,0,0,0,0,0,0,0,0,0,0,0,0,0,0,0,0
0,241,241,0,0,0,245,245,246,246,247,248,0,0,0,0,0,266,266,266,267,268,268,268,269,269,269,269,269,269,269,270,270,270,270,275,282,282,283,283,284,284,284,285,285,285,286,286,286,286,286,286,286,287,287,287,287,288,289,289,289,290,292,293,293,0,298,298,298,299,300,301,301,301,302,303,303,304,304,305,305,306,366,366,366,365,365,366,366,366,365,365,365,365,365,365,365,365,365,364,363,363,362,362,362,361,361,361,361,361,361,361,361,361,362,362,363,364,365,365,366,368,369,369,370,371,373,373,374,375,376,376,377,378,380,380,382,0,0,395,395,395,398,401,402,402,403,404,405,405,405,406,406,406,407,407,407,407,407,407,407,407,408,408,408,408,407,407,0,0,0,0,0,0,0,0,0,0,0,0,0,0,0,0,0,0,0,0,0,0,0,0,0,0,0,0,0,0,0,344,344,344,344,344,344,344,344,344,344,344,344,344,344,344,344,344,344,344,344,344,344,344,344,344,344,344,345,345,345,345,345,345,345,345,345,345,345,345,345,345,345,345,344,344,344,344,344,344,344,344,344,344,344,344,344,344,344,345,345,345,345,345,345,345,345,345,345,345,345,345,345,345,345,345,345,345,345,345,345,345,345,345,345,345,345,345,345,345,345,345,345,345,346,346,346,346,346,346,345,345,345,345,345,345,345,345,345,344,344,344,344,344,344,344,344,344,344,344,344,344,344,344,344,344,344,345,345,345,345,345,345,345,346,346,346,346,345,345,345,345,345,345,345,345,345,345,345,345,345,345,0,0,0,0,0,408,408,408,408,408,408,408,408,408,408,408,408,408,408,407,407,407,407,407,407,408,408,408,408,408,408,407,407,407,407,407,407,408,408,408,408,408,408,408,408,408,408,408,408,408,408,408,408,408,408,408,408,408,408,408,408,408,408,408,408,407,407,407,407,407,407,407,407,407,407,407,407,407,407,407,407,407,407,408,408,408,408,408,408,408,408,408,408,408,408,408,407,407,407,407,407,407,407,407,407,407,407,408,408,408,408,408,408,408,408,408,407,407,407,407,407,407,407,407,407,407,407,407,407,407,407,407,407,407,407,407,408,408,408,408,408,408,408,408,407,407,407,407,407,407,407,407,407,407,407,407,408,408,408,408,408,408,408,408,408,408,408,408,408,408,408,408,408,408,408,408,408,408,408,408,407,407,407,407,407,407,407,407,407,407,407,407,407,407,407,407,407,407,407,407,407,407,407,407,407,407,407,407,407,407,407,407,408,408,408,408,408,408,408,407,407,407,407,407,407,407,407,407,407,407,407,407,407,407,407,407,407,407,407,407,407,407,407,407,407,407,407,407,407,407,407,407,407,406,406,406,406,406,406,406,406,406,406,406,406,406,406,406,406,406,407,407,407,407,407,407,407,407,407,407,407,407,407,407,407,407,407,407,407,407,407,408,408,408,408,408,408,407,407,407,407,407,407,406,406,406,406,406,406,406,406,406,406,406,406,406,406,406,406,405,405,404,403,403,403,402,402,402,401,400,400,398,397,397,395,395,391,388,388,384,382,382,381,380,380,378,377,377,376,375,375,374,373,372,372,371,369,369,368,367,367,366,365,365,364,364,364,363,362,362,362,362,361,361,361,361,361,361,360,360,360,359,359,359,358,358,358,358,357,357,357,357,357,357,357,357,357,357,0,0,0,0,0,0,0,0,0,0,0,0,0,0,0
0,0,0,0,0,0,0,0,0,0,0,0,0,0,0,0,0,266,266,266,267,268,268,268,269,269,269,269,269,269,269,270,270,270,270,0,0,0,283,283,284,284,284,285,285,285,286,286,286,286,286,286,286,287,287,287,287,288,289,289,289,290,292,293,293,0,298,298,298,299,300,301,301,301,302,303,303,304,304,305,305,306,366,366,366,366,366,366,366,366,366,366,366,366,366,366,366,366,366,365,365,365,364,363,363,362,362,362,362,362,362,362,362,362,363,363,364,365,366,366,367,368,369,369,370,372,373,373,374,375,376,376,378,379,380,380,382,384,0,395,395,395,398,400,402,402,403,404,405,405,405,406,406,406,407,407,407,407,408,407,407,408,408,408,408,408,407,407,407,0,0,0,0,0,0,0,0,0,0,0,0,0,0,0,0,0,0,0,0,0,0,0,0,0,0,0,0,0,344,344,344,344,344,344,344,344,344,344,344,344,344,344,344,344,344,344,344,344,344,344,344,344,344,344,344,344,345,345,345,345,345,345,345,345,345,345,345,345,345,345,345,345,344,344,344,344,344,344,344,344,344,344,344,344,344,344,344,345,345,345,345,345,345,345,345,345,345,345,345,345,345,345,345,345,345,345,345,345,345,345,345,345,345,345,345,345,345,345,345,345,345,345,346,346,346,346,346,346,346,346,345,345,345,345,345,345,345,345,344,344,344,344,344,344,344,344,344,344,344,344,344,344,344,344,344,345,345,345,345,345,345,345,346,346,346,346,345,345,345,345,345,345,345,345,345,345,345,345,345,345,0,0,0,408,408,408,408,408,408,408,408,408,408,408,408,408,408,408,408,407,407,407,407,407,407,408,408,408,408,408,408,407,407,407,407,407,407,408,408,408,408,408,408,408,408,408,408,408,408,408,408,408,408,408,408,408,408,408,408,408,408,408,408,408,408,407,407,407,407,407,407,407,407,407,407,407,407,407,407,407,407,407,407,408,408,408,408,408,408,408,408,408,408,408,408,408,407,407,407,407,407,407,407,407,407,407,407,408,408,408,408,408,408,408,408,408,407,407,407,407,407,407,407,407,407,407,407,407,407,407,407,407,407,407,407,407,408,408,408,408,408,408,408,408,407,407,407,407,407,407,407,407,407,407,408,408,408,408,408,408,408,408,408,408,408,408,408,408,408,408,408,408,408,408,408,408,408,408,408,408,407,407,407,407,407,407,407,407,407,407,407,407,407,407,407,407,407,407,407,407,407,407,407,407,407,407,407,407,407,407,407,407,408,408,408,408,408,408,408,407,407,407,407,407,407,407,407,407,407,407,407,407,407,407,407,407,407,407,407,407,407,407,407,407,407,407,407,407,407,407,407,407,407,407,406,406,406,406,406,406,406,406,406,406,406,406,406,406,406,406,407,407,407,407,407,407,408,408,407,407,407,407,407,407,407,407,407,407,407,407,407,408,408,408,408,408,407,407,407,407,407,407,407,406,406,406,406,406,406,406,406,406,406,406,406,406,406,406,406,405,405,404,404,404,403,402,402,402,401,400,400,398,396,396,394,394,392,388,388,385,382,382,381,380,380,378,377,377,376,375,374,374,373,372,372,371,370,370,369,368,368,367,366,366,365,364,364,364,363,363,363,363,362,362,362,362,362,362,362,362,362,361,361,360,360,360,359,359,359,359,358,358,358,358,358,357,357,357,0,0,0,0,0,0,0,0,0,0,0,0,0,0,0
0,0,0,0,0,0,0,0,0,0,264,264,264,265,265,265,265,265,266,266,266,267,268,268,268,268,268,268,268,268,268,268,270,268,268,269,269,269,283,283,281,281,282,283,283,283,284,285,285,285,286,286,286,286,287,287,287,288,289,289,289,290,291,291,292,294,296,297,297,299,300,301,301,301,302,303,303,303,304,305,305,306,366,366,366,366,366,366,366,366,366,366,366,366,366,366,366,366,366,365,365,365,364,363,363,362,362,362,362,362,362,363,363,363,364,365,365,366,366,366,367,368,369,369,371,372,373,373,374,376,377,377,378,379,380,380,382,384,0,395,395,395,398,400,402,402,403,404,405,405,405,406,406,406,407,407,407,408,408,408,408,408,408,408,408,408,407,407,407,0,0,0,0,0,0,0,0,0,0,0,0,0,0,0,0,0,0,0,0,0,0,0,0,0,0,0,0,0,344,344,344,344,344,344,344,344,344,344,344,344,344,344,344,344,344,344,344,344,344,344,344,344,344,344,344,344,345,345,345,345,345,345,345,345,345,345,345,345,345,345,345,345,345,344,344,344,344,344,344,344,344,344,344,344,344,344,344,345,345,345,345,345,345,345,345,345,345,345,345,345,345,345,345,345,345,345,345,345,344,344,344,345,345,345,345,345,345,345,345,345,345,345,346,346,346,346,346,346,346,346,345,345,345,345,345,345,345,345,345,345,345,344,344,344,344,344,344,344,344,344,344,344,344,344,344,345,345,345,345,345,345,345,346,346,346,346,346,346,345,345,345,345,345,345,345,345,345,345,345,345,0,0,0,408,408,408,408,408,408,407,407,407,407,407,407,407,408,408,408,407,407,408,408,408,408,408,408,408,408,408,408,408,408,408,408,408,408,408,408,408,408,408,408,408,408,408,408,408,408,408,408,408,408,408,408,408,408,408,408,408,408,408,408,408,407,407,407,407,407,407,407,407,407,407,407,407,407,407,407,407,407,407,407,408,408,408,408,408,408,408,408,408,408,408,408,408,407,407,407,407,407,407,407,408,408,408,408,408,408,408,408,408,408,408,408,408,408,408,407,407,407,407,407,407,407,407,407,407,407,407,407,407,407,407,407,407,408,408,408,408,408,408,408,408,407,407,407,407,407,407,407,407,407,407,408,408,408,408,408,408,408,408,408,408,408,408,408,408,408,408,408,408,408,408,408,408,408,408,408,408,407,407,407,407,407,407,407,407,407,407,407,407,407,407,407,407,407,407,407,407,407,407,407,407,407,407,407,407,407,407,407,407,408,408,408,408,408,408,408,407,407,407,407,407,407,407,407,407,407,407,407,407,407,407,407,407,407,407,407,407,407,407,407,407,407,407,407,407,407,407,407,407,407,407,406,406,406,406,406,406,406,406,406,406,406,406,406,406,406,406,407,407,407,407,408,408,408,408,408,408,407,407,407,407,407,407,407,407,407,407,407,408,408,408,408,408,407,407,407,407,407,407,407,406,406,406,406,406,406,406,406,406,406,406,406,406,406,406,406,405,405,405,404,404,403,402,402,402,401,400,400,398,396,396,394,394,0,388,388,385,382,382,381,380,380,378,377,377,376,375,374,374,373,372,372,371,370,370,369,368,368,368,367,367,366,365,365,365,364,364,364,364,364,364,364,363,363,364,364,363,363,363,362,362,362,361,361,361,360,359,359,359,359,358,358,358,358,0,0,0,0,0,0,0,0,0,0,0,0,0,0,0,0
240,0,0,0,0,0,0,0,0,264,264,264,264,264,264,264,265,265,265,265,265,266,266,266,266,267,267,267,267,267,267,267,267,267,268,268,269,269,270,0,278,278,280,281,281,282,283,284,284,285,285,286,286,286,287,287,287,288,288,288,289,289,291,291,292,293,295,297,297,299,300,301,301,301,302,303,303,303,304,0,0,0,366,366,366,366,366,366,367,367,367,367,367,367,367,367,367,366,366,366,366,366,365,364,364,364,364,363,363,363,363,363,363,363,364,365,365,366,366,366,367,368,369,369,371,372,373,373,374,376,377,377,378,379,380,380,382,384,0,394,394,394,398,399,402,402,403,404,404,404,405,406,406,406,407,407,407,407,407,407,407,407,408,407,407,408,407,406,406,404,404,0,0,0,0,0,0,0,0,0,0,0,0,0,0,0,0,0,0,0,0,0,0,0,0,0,0,0,344,344,344,344,344,344,344,344,344,344,344,344,344,344,344,344,344,344,344,344,344,344,344,344,344,344,344,344,345,345,345,345,345,345,345,345,345,345,345,345,345,345,345,345,345,344,344,344,344,344,344,344,344,344,344,344,344,344,344,345,345,345,345,345,345,345,345,345,345,345,345,345,345,345,345,345,345,345,345,345,344,344,344,345,345,345,345,345,345,345,345,345,345,346,346,346,346,346,346,346,346,346,345,345,345,345,345,345,345,345,345,345,345,345,344,344,344,344,344,344,344,344,344,344,344,344,344,345,345,345,345,345,345,345,346,346,346,346,346,346,345,345,345,345,345,345,345,345,345,345,345,345,0,0,0,408,408,408,408,408,408,407,407,407,407,407,407,407,408,408,408,408,408,408,408,408,408,408,408,408,408,408,408,408,408,408,408,408,408,408,408,408,408,408,408,408,408,408,408,408,408,408,408,408,408,408,408,408,408,408,408,408,408,408,408,408,407,407,407,407,407,407,407,407,407,407,407,407,407,407,407,407,407,407,407,407,408,408,408,408,408,408,408,408,408,408,408,408,408,408,408,408,408,408,408,408,408,408,408,408,408,408,408,408,408,408,408,408,408,408,408,408,407,407,407,407,407,407,407,407,407,407,407,407,407,407,407,407,407,407,408,408,408,408,408,408,407,407,407,407,407,407,407,407,407,407,407,407,408,408,408,408,408,408,408,408,408,408,408,408,408,408,408,408,408,408,408,408,408,408,408,408,408,408,408,407,407,407,407,407,407,407,407,407,407,407,407,407,407,407,407,407,407,407,407,407,407,407,407,407,407,407,408,408,408,408,408,408,408,408,408,408,408,408,407,407,407,407,407,407,407,407,407,407,407,407,407,407,407,407,407,407,407,407,407,407,407,407,407,407,407,407,407,407,407,407,407,406,406,406,406,406,406,406,406,406,406,406,406,406,406,407,407,407,407,407,408,408,408,408,408,408,407,407,407,407,407,407,407,407,407,407,407,407,407,407,408,408,407,407,407,407,407,407,407,406,406,406,406,406,406,406,406,406,406,406,406,406,406,406,406,405,405,405,404,404,403,402,402,402,401,400,399,397,396,396,394,394,391,388,388,385,382,382,381,380,380,378,377,377,376,375,374,374,373,372,372,371,370,370,369,368,368,368,367,367,366,365,365,365,364,364,364,364,364,364,364,363,363,364,364,363,363,363,362,362,362,361,361,361,360,359,359,359,359,358,358,358,358,358,0,0,0,0,0,0,0,0,0,0,0,0,0,0,0
240,0,0,0,0,0,0,0,0,264,264,264,264,264,264,264,265,265,265,265,265,266,266,266,266,267,267,267,267,267,267,267,267,267,268,268,269,269,270,0,278,278,280,281,281,282,283,284,284,285,285,286,286,286,287,287,287,288,288,288,289,289,290,290,291,293,295,296,296,298,299,300,300,301,302,303,303,303,0,0,0,0,366,366,366,366,367,367,367,367,367,367,367,367,367,368,368,367,367,367,367,367,367,366,365,365,365,365,365,365,365,365,365,365,365,366,366,366,367,367,368,369,370,370,371,372,373,373,374,376,377,377,378,379,380,380,382,385,388,392,392,394,397,399,401,401,402,404,404,404,405,406,406,406,407,407,407,407,407,407,407,407,408,407,407,408,406,405,405,402,402,0,0,0,0,0,0,0,0,0,0,0,0,0,0,0,0,0,0,0,0,0,0,0,0,0,0,0,344,344,345,344,344,345,344,344,345,345,345,345,345,345,345,345,345,344,344,345,345,344,344,344,344,344,344,344,345,345,345,345,345,345,345,345,345,345,345,345,345,345,345,345,345,344,344,344,344,344,344,344,344,344,344,344,344,344,345,345,345,345,345,345,345,345,345,345,345,345,345,345,345,345,345,345,345,345,345,345,344,344,344,345,345,345,345,345,345,345,345,345,345,346,346,346,346,346,346,346,346,346,345,345,345,345,345,345,345,345,345,345,345,345,344,344,344,344,344,344,344,344,344,344,344,344,344,345,345,345,345,345,345,345,346,346,346,346,346,346,345,345,345,345,345,345,345,345,345,345,345,345,0,0,408,408,408,408,408,408,408,407,407,407,407,407,407,407,408,408,408,408,408,408,408,408,408,408,408,408,408,408,408,408,408,408,408,408,408,408,408,408,408,408,408,408,408,408,408,408,408,408,408,408,408,408,408,408,408,408,408,408,408,408,408,408,407,407,407,407,407,407,407,407,407,407,407,407,407,407,407,407,407,407,407,407,408,408,408,408,408,408,408,408,408,408,408,408,408,408,408,408,408,408,408,408,408,408,408,408,408,408,408,408,408,408,408,408,408,408,408,408,407,407,407,407,407,407,407,407,407,407,407,407,407,407,407,407,407,407,408,408,408,408,408,408,408,407,407,407,407,407,407,407,407,407,407,407,408,408,408,408,408,408,408,408,408,408,408,408,408,408,408,408,408,408,408,408,408,408,408,408,408,408,408,408,407,407,407,407,407,407,407,407,407,407,407,407,407,407,407,407,407,407,407,407,407,407,407,407,407,408,408,408,408,408,408,408,408,408,408,408,408,408,408,407,407,407,407,407,407,407,407,407,407,407,407,407,407,407,407,407,407,407,407,407,407,407,407,407,407,407,407,407,407,407,407,407,407,406,406,406,406,406,406,406,406,406,406,407,407,407,407,407,408,408,408,408,408,408,408,408,408,408,407,407,407,407,407,407,407,407,407,407,407,407,408,408,407,407,407,407,407,407,407,406,406,406,406,406,406,406,406,406,406,406,406,406,406,406,406,406,406,405,404,404,403,402,402,401,400,400,399,397,396,395,395,0,390,387,387,387,0,0,0,380,380,378,377,377,376,375,374,374,373,372,372,371,370,370,370,369,369,368,368,367,367,366,366,366,365,365,365,365,365,365,365,365,365,365,364,364,364,364,363,363,363,362,362,361,361,360,359,359,359,359,359,358,358,358,358,358,0,0,0,0,0,0,0,0,0,0,0,0,0
