399,399,399,399,399,399,399,399,399,399,400,400,400,400,400,400,400,400,400,400,400,400,400,401,401,401,401,401,401,401,401,401,401,401,401,401,401,401,401,402,402,402,402,402,402,402,402,402,402,402,402,402,401,401,401,401,400,400,400,400,400,399,399,399,399,399,399,399,398,398,398,398,398,399,399,399,399,399,399,399,399,399,398,398,398,396,396,395,393,393,393,387,387,383,383,379,379,0,0,374,374,372,371,371,371,370,370,370,370,371,371,371,372,373,373,374,375,376,376,377,377,377,377,377,377,376,375,375,374,374,374,373,372,372,372,372,372,372,372,372,372,372,373,373,374,374,375,376,378,378,379,381,383,383,385,387,390,390,391,393,394,394,395,396,397,397,398,399,399,399,399,399,399,399,399,399,399,400,400,400,400,400,400,400,400,400,400,400,400,400,400,399,399,399,399,399,399,399,399,399,399,399,399,398,398,399,398,398,398,398,398,398,398,398,398,398,398,398,398,398,398,398,398,398,398,399,399,399,399,399,399,399,399,399,399,399,399,399,399,399,399,399,399,399,399,399,399,399,399,399,399,399,399,399,398,398,398,398,398,398,398,398,398,398,398,398,398,398,398,398,398,398,398,399,399,398,398,398,398,399,399,398,398,399,399,399,399,399,399,399,399,399,399,399,399,399,399,399,399,399,399,399,399,399,399,399,399,399,399,399,399,399,399,398,398,398,398,398,398,398,398,398,398,398,398,398,398,398,398,398,398,398,398,398,398,398,398,399,399,398,398,398,398,398,398,398,398,398,398,398,398,398,398,398,398,398,398,398,398,398,398,398,398,398,398,398,398,398,398,398,398,398,398,398,398,398,398,398,398,398,398,398,398,398,398,398,398,398,398,398,398,398,398,398,398,398,398,398,398,398,398,398,398,398,398,398,398,398,398,399,399,399,399,399,399,399,399,399,399,399,399,399,399,398,398,398,398,399,399,399,399,399,399,398,398,398,399,399,399,399,399,399,399,399,399,399,399,399,399,399,398,398,398,398,398,398,398,397,397,397,397,397,397,397,397,397,397,397,397,0,397,397,397,397,397,397,398,398,398,398,398,398,398,398,398,398,398,398,398,398,398,398,398,398,398,398,398,398,398,398,398,398,398,398,398,398,398,398,397,397,398,398,398,398,398,398,398,398,398,398,398,399,398,398,398,398,398,398,398,398,398,398,398,398,398,398,398,398,398,398,398,398,398,398,398,398,398,398,398,398,398,398,398,398,397,397,397,397,397,397,397,397,397,398,398,397,397,397,398,398,398,397,397,397,397,397,397,397,397,397,397,397,397,397,397,397,397,397,397,397,397,397,397,397,397,397,397,397,397,397,397,397,397,397,397,397,397,397,397,397,397,397,397,397,397,397,397,397,396,396,396,396,396,396,396,396,396,396,396,396,396,396,396,396,396,396,396,396,396,396,396,396,396,396,396,396,396,396,396,396,396,396,396,396,396,396,396,396,396,396,396,396,396,396,396,396,396,396,396,396,396,396,396,396,396,396,396,396,396,396,396,396,396,396,396,396,396,396,396,396,396,396,396,396,396,396,396,396,396,395,395,395,394,394,394,394,394,393,392,392,392,391,390,390,389,388,388,387,386,386,384,382,382,380,379,379,377,375,375,373,372,372,371,370,369,369,368,368,368,367,367,367,367,367,367,368,368,368,369,370,370,371,372,373,373,373,374,374,373,373
399,399,399,399,399,399,399,399,399,399,399,399,400,400,400,400,400,400,400,400,400,400,400,400,400,400,400,400,400,400,400,400,400,400,400,400,401,401,401,401,402,402,402,402,402,402,402,402,402,402,402,402,401,401,401,401,400,400,400,400,400,399,399,399,399,399,399,399,399,399,399,398,398,399,399,399,399,399,399,399,399,399,399,399,398,396,396,394,393,393,393,386,386,381,381,378,376,376,375,374,374,372,371,371,371,370,370,370,370,371,371,371,372,373,373,374,375,376,376,377,377,377,377,376,376,376,375,375,374,373,373,373,372,372,372,372,372,372,372,372,372,372,373,373,374,374,375,377,378,378,380,382,384,384,386,388,390,390,392,393,394,394,395,396,398,398,398,399,399,399,399,399,399,400,400,400,400,400,400,400,400,400,400,400,400,400,400,400,400,400,400,400,400,399,399,399,399,399,399,399,399,399,399,399,399,399,398,398,398,398,398,398,398,398,398,398,398,398,398,398,398,398,398,398,399,399,399,399,399,399,399,399,399,399,399,399,399,399,399,399,399,399,399,399,399,399,399,399,399,399,399,399,399,399,399,398,398,398,398,398,398,398,398,398,398,398,398,398,398,398,398,398,399,399,399,399,399,399,399,399,399,399,399,399,399,399,399,399,399,399,399,399,399,399,399,399,399,399,399,399,399,399,399,399,399,399,399,399,399,399,399,399,398,398,398,398,398,398,398,398,398,398,398,398,398,398,398,398,398,398,398,398,398,399,399,399,399,399,399,399,399,399,398,398,398,398,398,398,398,398,398,398,398,398,398,398,398,398,398,398,398,398,398,398,398,398,398,398,398,398,398,398,398,398,398,398,398,398,398,399,399,398,398,398,398,398,398,398,398,398,398,398,398,398,398,398,398,398,398,398,398,398,398,398,398,398,398,399,399,399,399,399,399,399,399,399,399,399,399,399,399,399,399,398,398,398,399,399,399,399,399,399,399,398,398,398,399,399,399,399,399,399,399,399,399,399,399,399,399,399,398,398,398,398,398,398,398,397,397,397,397,397,397,397,397,397,397,397,397,0,397,397,397,397,397,397,398,398,398,398,398,398,398,398,398,398,398,398,398,398,398,398,398,398,398,398,398,398,398,398,398,398,398,398,398,398,398,398,397,397,398,398,398,398,398,398,398,398,398,398,398,399,398,398,398,398,398,398,398,398,398,398,398,398,398,398,398,398,398,398,398,398,398,398,398,398,398,398,398,398,398,398,398,398,397,397,397,397,397,397,397,397,397,398,398,398,398,398,398,398,398,398,398,398,397,397,397,397,397,397,397,397,397,397,397,397,397,397,397,397,397,397,397,397,397,397,397,397,397,397,397,397,397,397,397,397,397,397,397,397,397,397,397,397,397,397,397,397,396,396,396,396,396,396,396,396,396,396,396,396,396,396,396,396,396,396,396,396,396,396,396,396,396,396,396,396,396,396,396,396,396,396,396,396,396,396,396,396,396,396,396,396,396,396,396,396,396,396,396,396,396,396,396,396,396,396,396,396,396,396,396,396,396,396,396,396,396,396,396,396,396,396,396,396,396,396,396,396,396,395,395,395,394,394,394,394,393,393,392,392,392,391,390,390,389,388,388,387,386,386,384,382,382,380,379,379,377,375,375,373,372,372,371,370,369,369,368,368,368,367,367,367,367,367,367,368,368,368,369,370,370,371,372,373,373,373,374,374,373,373
399,399,399,399,399,399,399,399,399,399,399,399,399,400,400,400,400,400,400,400,400,400,400,400,400,400,400,400,400,400,400,400,400,400,400,400,400,401,401,401,401,401,401,402,402,402,402,402,402,402,402,401,401,401,401,400,400,400,400,400,400,399,399,399,399,399,399,399,399,399,399,399,399,399,399,399,399,399,399,399,399,399,399,399,397,395,395,394,394,0,387,386,384,381,381,378,376,376,375,374,374,373,371,371,371,370,370,370,370,371,371,371,372,373,373,374,375,376,376,377,377,377,377,376,376,376,375,375,374,373,373,373,372,372,372,372,372,372,372,372,372,372,373,374,375,375,376,377,379,379,381,382,384,384,386,388,390,390,392,393,394,394,395,397,398,398,398,399,399,399,399,399,399,400,400,400,400,400,400,400,400,401,401,401,401,401,401,401,401,400,400,400,400,400,399,399,399,399,399,399,399,399,399,399,399,399,399,398,398,398,398,398,398,398,398,398,398,398,398,398,398,398,399,399,399,399,399,399,399,399,399,399,399,399,399,399,399,399,399,399,399,399,399,399,399,399,399,399,399,399,399,399,399,399,399,399,399,398,398,398,398,398,398,398,398,398,399,399,399,399,399,399,399,399,399,399,399,399,399,399,399,399,399,399,399,399,399,399,399,399,399,399,399,399,399,399,399,399,399,399,399,399,399,399,399,399,399,399,399,399,399,399,398,398,399,398,398,398,398,398,398,398,398,398,398,398,398,398,398,398,398,399,399,399,399,399,399,399,399,399,399,399,399,399,398,398,398,398,398,398,398,398,398,398,398,398,398,398,398,398,398,398,398,398,398,398,398,398,398,398,398,398,398,398,398,398,398,398,398,399,399,398,398,398,398,398,398,398,398,398,398,398,398,398,398,398,398,398,398,398,398,398,398,398,398,398,398,399,399,399,399,399,399,399,399,399,399,399,399,399,399,399,399,398,398,398,399,399,399,399,399,399,399,398,398,398,398,399,399,399,399,399,399,399,399,399,399,399,399,399,398,398,398,398,398,398,398,397,397,397,397,397,397,397,397,397,397,397,397,397,397,397,397,397,397,397,398,398,398,398,398,398,398,398,398,398,398,398,398,398,398,398,398,398,398,398,398,398,398,398,398,398,398,398,398,398,398,398,397,397,398,398,398,398,398,398,398,398,398,398,398,399,398,398,398,398,398,398,398,398,398,398,398,398,398,398,398,398,398,398,398,398,398,398,398,398,398,398,398,398,398,398,398,398,397,397,397,397,397,397,397,397,397,398,398,397,397,397,398,398,398,398,398,398,397,397,397,397,397,397,397,397,397,397,397,397,397,397,397,397,397,397,397,397,397,397,397,397,397,397,397,397,397,397,397,398,398,397,397,397,397,397,397,397,397,397,397,397,396,396,396,397,397,396,396,396,396,396,396,396,396,396,396,396,396,396,396,396,396,396,396,396,396,396,396,396,396,396,396,396,396,396,396,396,396,396,396,396,396,396,396,396,396,396,396,396,396,396,396,396,396,396,396,396,396,396,396,396,396,396,396,396,396,396,396,396,396,396,396,396,396,396,396,396,396,396,396,396,396,395,395,395,394,394,394,393,393,393,392,392,392,391,390,390,389,388,388,387,386,386,384,382,382,380,378,378,377,375,375,373,372,372,371,370,369,369,368,368,368,367,367,367,367,367,367,368,368,368,369,370,370,371,372,373,373,373,374,374,374,373
399,399,399,399,399,399,399,399,399,399,399,399,399,400,400,400,400,400,400,400,400,400,400,400,400,400,400,400,400,400,400,400,400,400,400,400,400,401,401,401,401,401,401,402,402,402,402,402,402,402,402,401,401,401,401,400,400,400,400,400,400,399,399,399,399,399,399,399,399,399,399,399,399,399,399,399,399,399,399,399,399,399,399,399,397,395,395,395,0,0,387,387,384,381,381,378,376,376,375,374,374,373,371,371,371,370,370,370,370,371,371,371,372,373,373,374,375,376,376,376,377,377,377,376,376,376,375,375,374,373,373,373,372,372,372,371,371,372,372,372,372,372,373,374,375,375,376,377,379,379,381,382,384,384,386,388,390,390,392,393,394,394,395,397,398,398,398,399,399,399,399,399,399,400,400,400,400,400,400,400,400,401,401,401,401,401,401,401,401,400,400,400,400,400,399,399,399,399,399,399,399,399,399,399,399,399,399,398,398,398,398,398,398,398,398,398,398,398,398,398,398,398,399,399,399,399,399,399,399,399,399,399,399,399,399,399,399,399,399,399,399,399,399,399,399,399,399,399,399,399,399,399,399,399,399,399,399,398,398,398,398,398,398,398,398,398,399,399,399,399,399,399,399,399,399,399,399,399,399,399,399,399,399,399,399,399,399,399,399,399,399,399,399,399,399,399,399,399,399,399,399,399,399,399,399,399,399,399,399,399,399,399,398,398,398,398,398,398,398,398,398,398,398,398,398,398,398,398,398,398,398,399,399,399,399,399,399,399,399,399,399,399,399,398,398,398,398,398,398,398,398,398,398,398,398,398,398,398,398,398,398,398,398,398,398,398,398,398,398,398,398,398,398,398,398,398,398,398,398,398,398,398,398,398,398,398,398,398,398,398,398,398,398,398,398,398,398,398,398,398,398,398,398,398,398,398,398,398,398,399,399,399,399,399,399,399,399,399,399,399,399,399,399,399,399,399,399,399,399,399,399,399,398,398,398,398,398,398,398,398,398,398,398,399,399,399,399,399,399,398,398,398,398,398,398,398,398,397,397,397,397,397,397,397,397,397,397,397,397,397,397,397,397,397,397,397,397,397,397,398,398,398,398,398,398,398,398,398,398,398,398,398,398,398,398,398,398,398,398,398,398,398,398,398,398,398,398,398,398,398,398,398,398,398,398,398,398,398,398,398,398,398,398,398,398,398,398,398,398,398,398,398,398,398,398,398,398,398,398,398,398,398,398,398,398,398,398,398,398,398,398,398,398,398,398,397,397,397,397,397,397,398,398,398,398,397,397,397,398,398,398,398,398,398,398,398,398,398,397,397,397,397,397,397,397,397,397,397,397,397,397,398,398,397,397,397,397,397,397,397,397,397,397,397,398,398,398,398,398,398,397,397,397,397,397,397,397,397,397,397,397,397,397,397,396,396,396,396,396,396,396,396,396,396,396,396,396,396,396,396,396,396,396,396,396,396,396,396,396,396,396,396,396,396,396,396,396,396,396,396,396,396,396,396,396,396,396,396,396,396,396,396,396,396,396,396,396,396,396,396,396,396,396,396,396,396,396,396,396,396,396,396,396,396,396,396,396,396,396,396,396,395,394,394,394,393,393,393,392,392,392,391,390,390,389,388,388,387,386,386,384,382,382,380,378,378,377,375,375,373,372,372,371,370,369,369,368,368,368,367,367,367,367,367,367,368,368,368,369,370,370,371,372,373,373,374,374,374,374,373
399,399,399,399,399,399,399,399,399,399,399,399,399,399,399,400,400,400,400,400,400,400,400,400,400,400,400,400,400,400,400,400,400,400,400,400,400,400,400,401,401,401,401,401,401,401,402,402,401,401,401,401,401,401,400,400,400,400,400,400,400,399,399,399,399,399,399,399,399,399,399,399,399,399,399,399,399,399,399,399,399,399,399,399,397,395,395,392,392,0,386,386,383,380,380,378,376,376,375,374,374,373,372,372,371,371,371,370,370,371,371,371,372,373,373,374,375,376,376,376,377,377,377,376,376,376,375,375,374,373,373,373,372,372,371,371,371,372,372,372,372,372,373,374,375,375,376,378,380,380,381,383,385,385,387,388,390,390,392,393,394,394,395,397,397,397,398,399,399,399,399,400,400,400,400,400,400,400,401,401,401,401,401,401,401,401,401,401,401,401,400,400,400,400,400,400,399,399,399,399,399,399,399,399,399,399,399,399,399,398,398,398,398,398,398,398,398,398,398,398,398,399,399,399,399,399,399,399,399,399,399,399,399,399,399,399,399,399,399,399,399,399,399,399,399,399,399,399,399,399,399,399,399,399,399,399,399,399,399,399,398,398,398,399,399,399,399,399,399,399,399,399,399,399,399,399,399,399,399,399,399,399,399,399,399,399,399,399,399,399,399,399,399,399,399,399,399,399,399,399,399,399,399,399,399,399,399,399,399,399,399,399,398,398,398,398,398,398,398,398,398,398,398,398,398,398,398,398,398,398,399,399,399,399,399,399,399,399,399,399,399,399,399,398,398,398,398,398,398,398,398,398,398,398,398,398,398,398,398,398,398,398,398,398,398,398,398,398,398,398,398,398,398,398,398,398,398,398,398,398,398,398,398,398,398,398,398,398,398,398,398,398,398,398,398,398,398,398,398,398,398,398,398,398,398,398,398,398,398,398,399,399,399,399,399,399,399,399,399,398,398,398,398,398,398,398,398,398,398,398,398,398,398,398,398,398,398,398,398,398,398,398,398,398,398,398,398,398,398,398,398,398,398,398,398,398,398,397,397,397,397,397,397,397,397,397,397,397,397,397,397,397,397,397,397,397,397,397,397,398,398,398,398,398,398,398,398,398,398,398,398,398,398,398,398,398,398,398,398,398,398,398,398,398,398,398,398,398,398,398,398,398,398,398,398,398,398,398,398,398,398,398,398,398,398,398,398,398,398,398,398,398,398,398,398,398,398,398,398,398,398,398,398,398,398,398,398,398,398,398,398,398,398,398,398,398,398,398,398,398,398,398,398,398,398,397,397,397,398,398,398,398,398,398,398,398,398,398,398,397,397,397,397,397,398,398,398,398,398,398,398,398,398,398,398,397,397,397,397,397,397,397,397,398,398,398,398,398,398,398,397,397,397,397,397,397,397,397,397,397,397,397,397,397,397,397,397,396,396,396,396,396,396,396,396,396,396,396,396,396,396,396,396,396,396,396,396,396,396,396,396,396,396,396,396,396,396,396,396,396,396,396,396,396,396,396,396,396,396,396,396,396,396,396,396,396,396,396,396,396,396,396,396,396,396,396,396,396,396,396,396,396,396,396,396,396,396,396,396,395,395,395,394,394,394,393,393,393,392,392,392,390,390,390,389,388,388,387,385,385,384,382,382,380,378,378,377,375,375,373,372,372,370,370,369,369,368,368,368,367,367,367,367,367,367,368,368,368,369,370,370,371,372,373,373,374,374,374,374,373
399,399,399,399,399,399,399,399,399,399,399,399,399,399,399,399,400,399,399,399,399,399,400,400,400,399,399,399,400,399,399,399,399,399,399,399,400,400,400,400,401,401,401,401,401,401,401,401,401,401,401,401,400,400,400,400,400,400,400,400,400,399,399,399,399,399,399,399,399,399,399,399,399,399,399,399,399,399,399,399,399,399,399,399,397,395,395,392,389,389,386,386,383,380,380,378,376,376,375,374,374,373,372,372,371,371,371,371,371,371,371,371,372,373,373,374,375,375,375,376,377,377,377,376,376,376,375,375,374,373,373,373,372,372,371,371,371,371,371,372,372,372,373,374,375,375,376,378,380,380,382,384,385,385,387,389,390,390,392,393,394,394,395,396,397,397,398,399,399,399,399,400,400,400,400,401,401,401,401,401,401,402,402,401,401,401,401,401,401,401,401,400,400,400,400,400,400,399,399,399,399,399,399,399,399,399,399,399,399,398,398,399,399,399,399,399,399,399,399,399,399,399,399,399,399,399,399,399,399,399,399,399,399,399,399,399,399,399,399,399,399,399,399,399,399,399,400,399,399,400,400,399,399,399,399,399,399,399,399,399,399,399,399,399,399,399,399,399,399,399,399,399,399,399,399,399,399,399,399,399,399,399,399,399,399,399,399,399,399,399,399,399,399,399,399,399,399,399,399,399,399,399,399,399,399,399,399,399,399,399,399,399,398,398,398,398,398,398,398,398,398,398,398,398,398,398,398,399,399,399,399,399,399,399,399,399,399,399,399,399,399,399,399,398,398,398,398,398,398,398,398,398,398,398,398,398,398,398,398,398,398,398,398,398,398,398,398,398,398,398,398,398,398,398,399,398,398,398,398,398,398,398,398,398,398,398,398,398,398,398,398,398,398,398,398,398,398,398,398,398,398,398,398,398,398,398,398,398,398,398,399,399,399,399,399,399,399,399,399,398,398,398,398,398,398,398,398,398,398,398,398,398,398,398,398,398,398,398,398,398,398,398,398,398,398,398,398,398,398,398,398,398,398,397,397,397,397,397,397,397,397,397,397,396,396,396,396,396,396,396,396,396,396,396,397,397,397,397,397,397,397,397,398,398,398,398,398,398,398,398,398,398,398,398,398,398,398,398,398,398,398,398,398,398,398,398,398,398,398,398,398,398,398,398,398,398,398,398,398,398,398,398,398,398,398,398,398,398,398,398,398,398,398,398,398,398,398,398,398,398,398,398,398,398,398,398,398,398,398,398,398,398,398,398,398,398,398,397,397,397,397,398,398,398,398,397,397,397,398,398,398,398,398,398,398,398,398,398,398,397,397,397,397,397,398,398,398,398,398,397,397,398,398,398,398,397,397,397,397,397,397,397,397,398,398,398,398,398,398,398,397,397,397,397,397,397,397,397,397,397,397,397,397,397,397,397,397,396,396,396,396,396,396,396,396,396,396,396,396,396,396,396,396,396,396,396,396,396,396,396,396,396,396,396,396,396,396,396,396,396,396,396,396,396,396,396,396,396,396,396,396,396,396,396,396,396,396,396,396,396,396,396,396,396,396,396,396,396,396,396,396,396,396,396,396,396,396,396,396,395,395,395,394,394,394,393,393,392,392,391,391,390,390,390,389,388,388,387,385,385,384,382,382,380,378,378,376,375,375,373,371,371,370,369,369,369,368,368,368,367,367,367,367,367,367,368,368,369,370,371,371,372,373,373,373,374,374,374,374,373
399,399,399,399,399,399,399,399,399,399,399,399,399,399,399,399,400,399,399,399,399,399,400,400,400,399,399,399,400,399,399,399,399,399,399,399,400,400,400,400,401,401,401,401,401,401,401,401,401,401,401,401,400,400,400,400,400,400,400,400,400,399,399,399,399,399,399,399,399,399,399,399,399,400,400,400,399,399,399,399,399,399,399,399,397,395,395,395,389,389,386,386,383,383,0,378,376,376,375,374,374,373,372,372,371,371,371,371,371,371,371,371,372,373,373,374,375,375,375,376,377,377,377,376,376,376,375,375,374,373,373,373,372,372,371,371,371,371,371,372,372,372,373,374,375,375,376,378,380,380,382,384,385,385,387,389,390,390,392,393,394,394,395,396,398,398,398,399,399,399,399,400,400,400,401,401,401,401,401,401,401,402,402,402,402,402,402,401,401,401,401,401,401,400,400,400,400,400,400,399,399,399,399,399,399,399,399,399,399,398,398,399,399,399,399,399,399,399,399,399,399,399,399,399,399,399,399,399,399,399,399,399,399,399,399,399,399,399,399,399,399,399,399,399,399,399,400,399,399,400,400,399,399,399,399,399,399,399,399,399,399,399,399,399,399,399,399,399,399,399,399,399,399,399,399,399,399,399,399,399,399,399,399,399,399,399,399,399,399,399,399,399,399,399,399,399,399,399,399,399,399,399,399,399,399,399,399,399,398,398,398,398,398,398,398,398,398,398,398,398,398,398,398,398,398,398,398,399,399,399,399,399,399,399,399,399,399,399,399,399,399,399,399,398,398,398,398,398,398,398,398,398,398,398,398,398,398,398,398,398,398,398,398,398,398,398,398,398,398,398,398,398,398,398,398,398,398,398,398,398,398,398,398,398,398,398,398,398,398,398,398,398,398,398,398,398,398,398,397,397,397,397,397,398,398,398,398,398,398,398,398,398,398,398,398,398,399,399,399,398,398,398,398,398,398,398,398,398,398,398,398,398,398,397,397,397,397,397,397,397,397,397,397,397,397,397,397,397,397,397,397,397,397,397,396,396,396,396,396,396,396,396,396,395,395,396,396,396,396,396,396,396,396,396,396,396,396,396,396,396,396,397,397,397,397,398,398,398,397,397,397,397,397,398,398,398,398,398,398,398,398,398,398,398,398,398,398,398,398,398,398,398,398,398,398,398,398,398,398,398,398,398,398,398,398,398,398,398,398,398,398,398,398,398,398,398,397,397,397,397,397,397,398,398,398,398,398,398,398,398,398,398,398,397,397,397,397,397,397,397,397,397,397,397,397,397,397,397,397,397,397,397,398,398,398,398,397,397,397,397,397,397,397,398,398,398,398,398,398,397,397,398,398,397,397,397,397,397,397,397,397,397,397,397,398,398,398,398,398,398,398,398,398,397,397,397,397,397,397,397,397,397,397,397,397,397,397,396,396,396,396,396,396,396,396,396,396,396,396,396,396,396,396,396,396,396,396,396,396,396,396,396,396,396,396,396,396,396,396,396,396,396,396,396,396,396,396,396,396,396,396,396,396,396,396,396,396,396,396,396,396,396,396,396,396,396,396,396,396,396,396,396,396,396,396,396,396,396,396,395,395,395,394,394,394,393,393,392,392,391,391,390,390,390,389,388,388,387,385,385,384,381,381,380,378,378,376,374,374,373,371,371,370,369,369,369,368,368,368,367,367,367,367,367,367,368,368,369,370,371,371,372,373,374,374,375,375,375,374,373
399,399,399,399,399,399,399,399,399,399,399,399,399,399,399,399,399,399,399,399,399,399,399,399,399,399,399,399,399,399,399,399,399,399,399,399,399,399,399,400,400,400,400,401,401,401,401,401,401,400,400,400,400,400,400,400,400,400,400,399,399,399,399,399,399,399,399,399,399,399,399,399,399,400,400,400,399,399,399,399,399,399,399,399,397,395,395,395,389,389,385,385,382,379,379,377,376,376,375,373,373,373,372,372,371,370,370,370,370,371,371,371,372,373,373,374,374,375,375,376,377,377,377,376,376,376,375,375,374,373,373,373,372,372,371,371,371,371,371,372,372,372,373,374,375,375,376,378,380,380,382,384,385,385,387,389,390,390,392,393,394,394,395,396,398,398,398,399,399,399,399,400,400,400,401,401,401,401,401,401,401,402,402,402,402,402,402,401,401,401,401,401,401,400,400,400,400,400,400,399,399,399,399,399,399,399,399,399,399,399,399,399,399,399,399,399,399,399,399,399,399,399,399,399,399,399,399,399,399,399,399,399,399,399,399,399,399,399,399,399,399,399,399,399,400,400,400,400,400,400,400,400,400,400,399,399,399,399,399,399,399,399,399,399,399,399,399,399,399,399,399,399,399,399,399,399,399,399,399,399,399,399,399,399,399,399,399,399,399,399,399,399,399,399,399,399,399,399,399,399,399,399,399,399,399,399,398,398,398,398,398,398,398,398,398,398,398,398,398,398,398,398,398,398,399,399,399,399,399,399,399,399,399,399,399,399,399,399,399,399,399,399,399,398,398,398,398,398,398,398,398,398,398,398,398,398,398,398,398,398,398,398,398,398,398,398,398,398,398,398,398,399,399,399,398,398,398,398,398,398,398,398,398,398,398,398,398,398,398,398,398,398,398,398,398,398,398,398,397,397,397,397,397,397,397,397,397,397,397,398,398,398,398,398,398,398,398,398,398,398,398,398,398,398,398,398,397,397,397,397,397,397,397,397,397,396,396,396,396,396,396,396,396,396,396,396,396,396,396,396,396,396,396,395,395,395,394,394,394,394,394,394,393,393,393,393,393,393,393,393,393,393,393,393,393,393,393,394,394,394,394,394,395,396,396,396,396,396,397,397,397,397,397,397,397,397,397,397,397,397,397,397,397,398,398,398,398,398,398,398,398,398,398,398,398,398,398,398,398,398,398,398,398,398,397,397,397,397,397,397,397,397,397,397,397,397,397,397,397,397,397,397,397,397,397,398,398,397,397,397,397,397,397,397,397,397,397,397,397,397,397,397,397,397,397,397,397,397,397,397,397,397,0,0,0,0,397,397,397,397,397,397,397,398,398,398,398,398,398,398,398,398,398,397,397,397,397,397,397,397,397,397,397,397,398,398,398,398,398,398,398,398,398,397,397,397,397,397,397,397,397,397,397,397,397,397,397,397,397,397,396,396,396,396,396,396,396,396,396,396,396,396,396,396,396,396,396,396,396,396,396,396,396,396,396,396,397,397,397,397,396,396,396,396,396,396,396,396,396,396,397,397,397,397,396,396,396,396,396,396,396,396,396,396,396,396,396,396,396,396,396,396,397,397,396,396,396,396,396,395,395,395,394,394,394,393,393,392,392,391,391,390,390,390,389,388,388,387,385,385,384,381,381,380,378,378,376,374,374,373,371,371,370,369,369,369,368,368,368,368,367,367,367,367,368,368,368,369,370,371,371,372,373,374,374,375,375,375,374,373
399,399,399,399,399,399,399,399,399,399,399,399,399,399,399,399,399,399,399,399,399,399,399,399,399,399,399,399,399,399,399,399,399,399,399,399,399,399,399,400,400,400,400,400,400,400,400,400,400,400,400,400,400,400,400,400,400,400,400,399,399,399,399,399,399,399,399,399,399,399,399,399,400,400,400,400,399,399,399,399,399,399,399,399,397,397,0,0,0,0,385,385,382,379,379,377,376,376,374,373,373,372,371,371,371,370,370,370,370,370,370,371,372,373,373,373,374,375,375,376,377,377,377,376,376,376,375,375,374,373,373,373,372,372,371,371,371,371,371,372,372,372,373,374,375,375,377,378,381,381,382,384,385,385,387,389,390,390,392,393,394,394,395,396,397,397,398,399,399,399,399,400,400,400,401,401,401,401,401,401,402,402,402,402,402,402,401,401,401,401,401,401,401,400,400,400,400,400,400,399,399,399,399,399,399,399,399,399,399,399,399,399,399,399,399,399,399,399,399,399,399,399,399,399,399,399,399,399,399,399,399,399,399,399,399,399,399,399,399,399,399,399,400,400,400,400,400,400,400,400,400,400,400,400,399,399,399,399,399,399,399,399,399,399,399,399,399,399,399,399,399,399,399,399,399,399,399,399,399,399,399,399,399,399,399,399,399,399,399,399,399,399,399,399,399,399,399,399,399,399,399,399,399,399,399,399,398,398,398,398,398,398,398,398,398,398,398,398,398,398,398,398,398,399,399,399,399,399,399,399,399,399,399,399,399,399,399,399,399,399,399,399,399,398,398,398,398,398,398,398,398,398,398,398,398,398,398,398,398,398,398,398,398,398,398,398,398,398,398,398,398,399,399,399,399,398,398,398,398,398,398,398,398,398,398,398,398,398,398,398,398,398,398,398,398,398,398,398,398,397,397,397,397,397,397,397,397,397,397,398,398,398,398,398,398,398,398,398,398,398,398,398,398,398,398,398,397,397,397,397,397,397,397,397,397,396,396,396,396,396,396,396,396,396,396,396,396,396,396,396,396,396,396,395,395,395,394,394,394,394,394,394,393,393,393,393,393,393,393,393,393,393,393,393,393,393,393,394,394,394,394,394,395,396,396,396,396,396,397,397,397,397,397,397,397,397,397,397,397,397,397,397,397,398,398,398,398,398,398,398,398,398,398,398,398,398,398,398,398,398,398,398,398,398,397,397,397,397,397,397,397,397,397,397,397,397,397,397,397,397,397,397,397,397,397,398,398,397,397,397,397,397,397,397,397,397,397,397,397,397,397,397,397,397,397,397,397,397,396,396,396,396,397,397,397,397,397,397,397,397,397,397,397,397,398,398,398,398,398,397,397,397,397,397,397,397,397,397,397,397,397,397,397,397,397,398,398,398,398,398,398,397,397,397,397,397,397,397,397,397,397,397,397,397,397,397,397,397,397,397,396,396,396,396,396,396,396,396,396,396,396,396,396,396,396,396,396,396,396,396,396,396,396,396,396,396,397,397,397,396,396,396,396,396,396,396,396,396,396,396,396,397,397,397,396,396,396,396,396,396,396,396,396,396,396,396,396,396,396,396,396,396,396,396,396,396,396,396,396,395,395,395,394,394,393,393,393,392,392,391,391,390,389,389,389,388,388,387,385,385,383,381,381,379,377,377,376,374,374,372,371,371,370,369,369,369,368,368,368,368,367,367,367,367,368,368,368,369,370,371,371,372,373,374,374,375,375,375,374,373
399,399,399,399,399,399,399,399,399,399,399,399,399,399,399,399,399,399,399,399,399,399,399,399,399,399,399,399,399,399,399,399,399,399,399,399,399,399,399,400,400,400,400,400,400,400,400,400,400,400,400,400,400,400,399,399,399,399,399,399,399,399,399,399,399,399,400,400,400,400,400,400,400,400,400,400,400,400,399,399,399,399,399,399,397,397,0,0,0,0,386,386,382,379,379,377,376,376,374,373,373,372,371,371,371,370,370,370,370,370,370,371,372,373,373,373,374,375,375,376,377,377,377,376,376,376,375,375,374,374,374,373,372,372,372,371,371,371,371,372,372,372,373,374,375,375,379,379,381,381,382,384,386,386,387,389,390,390,392,393,394,394,395,396,397,397,398,399,399,399,400,400,400,401,401,401,401,401,401,401,402,402,402,402,402,402,401,401,401,401,401,401,401,400,400,400,400,400,400,399,399,399,399,399,399,399,399,399,399,399,399,399,399,399,399,399,399,399,399,399,399,399,399,399,399,399,399,399,399,399,399,399,399,399,399,399,399,399,399,399,399,400,400,400,400,400,400,400,400,400,400,400,400,400,400,399,399,399,399,399,399,399,399,399,399,399,399,399,399,399,399,399,399,399,399,399,399,399,399,399,399,399,399,399,399,399,399,399,399,399,399,399,399,399,399,399,399,399,399,399,399,399,399,399,399,399,398,398,398,398,398,398,398,398,398,398,398,398,398,398,398,398,398,399,399,399,399,399,399,399,399,399,399,399,399,399,399,399,399,399,399,399,399,398,398,398,398,398,398,398,398,398,398,398,398,398,398,398,398,398,398,398,398,398,398,398,398,398,398,398,398,398,398,398,398,398,398,398,398,398,398,398,398,398,398,398,398,398,398,398,398,398,398,398,398,397,397,397,397,397,397,397,397,397,397,397,397,397,397,396,396,396,397,397,397,397,397,397,397,397,397,397,397,397,398,397,397,397,396,396,396,396,396,396,396,395,395,395,394,394,394,394,394,394,394,394,394,394,394,394,394,394,394,393,393,393,392,392,392,391,391,391,391,391,391,390,390,390,390,390,390,390,390,390,390,391,391,391,391,391,392,392,393,393,394,395,395,395,396,396,396,395,395,395,395,395,395,395,395,395,396,395,395,396,396,396,396,396,396,396,396,396,396,396,397,397,397,397,398,398,398,398,397,397,397,397,396,396,396,396,396,396,396,396,396,396,396,396,397,397,397,397,397,397,397,397,397,397,397,397,397,396,396,396,396,396,396,396,396,396,396,396,396,396,396,396,396,396,396,396,396,396,396,396,396,396,396,396,396,396,397,397,397,397,397,397,397,397,397,397,397,397,397,397,397,397,397,397,397,397,397,397,397,397,397,397,397,398,398,398,397,397,397,397,397,397,397,397,397,397,397,397,397,397,397,397,397,397,397,397,396,396,396,396,396,396,396,396,396,396,396,396,396,396,396,396,396,396,396,396,396,396,396,396,396,396,396,397,397,396,396,396,396,396,396,396,396,396,396,396,396,397,397,397,396,396,396,396,396,397,397,397,397,396,396,396,396,396,396,396,396,396,396,396,396,396,396,396,396,395,395,394,394,394,393,393,393,392,392,391,391,390,389,389,389,388,388,387,385,385,383,381,381,379,377,377,376,374,374,372,371,371,370,369,369,369,368,368,368,368,367,367,367,368,368,369,369,369,370,372,372,373,374,374,374,375,375,375,374,373
400,399,399,399,399,399,399,399,399,399,399,399,399,399,399,399,399,399,399,399,399,399,399,399,399,399,399,399,399,399,399,399,399,399,399,399,399,399,399,400,400,400,400,400,400,400,400,400,400,400,400,400,400,400,399,399,399,399,399,399,399,399,399,399,399,399,400,400,400,400,400,400,400,400,400,400,400,400,399,399,399,399,399,399,397,395,395,395,0,0,386,386,382,379,379,377,375,375,374,373,373,372,371,371,371,370,370,370,370,370,370,371,372,372,372,373,374,375,375,376,377,377,377,376,376,376,375,375,374,374,374,373,372,372,372,371,371,371,371,372,372,372,372,373,375,375,378,378,380,380,382,384,385,385,387,388,390,390,391,393,394,394,395,396,397,397,398,399,399,399,400,400,400,400,401,401,401,401,401,401,402,402,402,402,401,401,401,401,401,401,401,400,400,400,400,400,400,400,400,399,399,399,399,399,399,399,399,399,399,399,399,399,399,399,399,399,399,399,399,399,399,399,399,399,399,399,399,399,399,399,399,399,399,399,399,399,399,399,399,399,399,400,400,400,400,400,400,400,400,400,400,400,400,400,400,399,399,399,399,399,399,399,399,399,399,399,399,399,399,399,399,399,399,399,399,399,399,399,399,399,399,399,399,399,399,399,399,399,399,399,399,399,399,399,399,399,399,399,399,399,399,399,399,399,399,399,398,398,398,398,398,398,398,398,398,398,399,399,399,399,399,399,399,399,399,399,399,399,399,399,399,399,399,399,399,399,399,399,399,399,398,398,398,398,398,398,398,398,398,398,398,397,397,397,397,397,397,397,398,398,398,398,398,398,398,398,398,398,398,398,398,398,398,398,398,398,398,398,397,397,397,397,397,397,397,397,397,397,398,398,398,398,398,398,398,397,397,397,397,397,397,397,397,397,397,397,396,396,395,395,395,394,394,395,395,394,394,394,394,394,395,395,395,396,396,396,395,395,395,394,394,394,394,393,393,393,393,393,392,392,392,392,392,392,392,392,392,392,392,392,392,392,391,391,391,390,390,390,390,389,389,389,388,388,388,388,388,388,387,387,390,390,390,388,388,388,388,388,388,388,389,390,391,391,392,392,393,393,393,394,393,392,392,392,392,392,392,392,392,392,392,392,392,393,393,393,393,393,393,393,394,394,394,394,395,395,396,396,396,396,397,397,396,396,396,395,395,395,395,395,395,395,395,395,395,396,396,396,396,396,396,396,396,396,396,396,396,396,396,396,396,396,396,395,395,395,395,395,395,395,395,396,396,396,396,396,396,395,395,395,395,395,395,395,395,395,395,395,395,396,397,397,397,397,397,397,397,397,397,397,397,397,397,397,397,397,397,397,397,397,397,397,397,397,397,397,397,397,397,397,397,397,397,397,397,397,397,397,397,397,397,397,397,397,397,397,397,397,397,397,396,396,396,396,396,396,396,396,396,396,396,396,396,396,396,396,396,396,396,396,396,396,396,396,396,396,396,396,397,397,396,396,396,396,396,396,396,396,396,396,396,396,396,396,396,396,396,397,397,397,397,397,397,397,396,396,396,396,396,396,396,396,396,396,396,396,396,396,396,395,395,394,394,394,393,393,393,392,392,391,391,390,389,389,389,388,388,387,385,385,384,381,381,380,378,378,376,374,374,372,371,371,370,369,369,369,368,368,368,368,368,368,368,368,368,369,369,370,371,372,372,373,374,375,375,375,375,375,374,374
400,399,399,399,399,399,399,399,399,399,399,399,399,399,399,399,399,399,399,399,399,399,399,399,399,399,399,399,399,399,399,399,399,399,399,399,399,399,399,400,400,400,400,400,400,400,400,400,400,399,399,399,399,399,399,399,399,399,399,399,399,399,399,399,399,400,400,400,400,400,400,400,400,400,400,400,400,400,399,399,399,399,399,399,397,395,395,394,392,392,388,388,383,380,380,377,375,375,375,372,372,371,371,371,370,370,370,370,370,370,370,371,372,372,372,373,374,375,375,376,377,377,377,376,376,376,375,375,374,374,374,373,372,372,372,371,371,371,371,372,372,372,372,373,375,375,376,378,380,380,382,383,385,385,387,388,390,390,391,392,394,394,395,396,397,397,398,399,399,399,400,400,400,400,401,401,401,401,401,401,401,401,401,401,401,401,401,401,401,401,401,400,400,400,400,400,400,400,400,399,399,399,399,399,399,399,399,399,399,399,399,399,399,399,399,399,399,399,399,399,399,399,399,399,399,399,399,399,399,399,399,399,399,399,399,399,399,399,399,400,400,400,400,400,400,400,400,400,400,400,400,400,400,400,400,399,399,399,399,399,399,399,399,399,399,399,399,399,399,399,399,399,399,399,399,399,399,400,400,399,399,399,399,399,399,399,399,399,399,399,399,399,399,399,399,399,399,399,399,399,399,399,399,398,398,398,398,398,398,398,398,398,398,398,398,398,399,399,399,399,399,399,399,399,399,399,399,399,399,399,399,399,399,399,399,399,399,399,399,398,398,398,398,398,398,398,397,397,398,397,397,397,397,397,397,397,397,397,397,397,397,397,397,397,397,397,397,396,396,396,396,396,396,396,396,396,396,395,394,394,394,394,394,394,394,394,394,394,395,395,395,396,397,397,397,397,397,397,397,397,397,397,397,397,396,396,396,394,393,393,392,391,391,391,391,390,390,390,391,394,395,395,395,396,396,392,392,395,395,394,394,394,394,393,393,393,393,393,392,392,392,392,392,392,392,392,392,392,392,392,392,392,391,391,391,390,390,390,390,389,389,389,388,388,388,388,388,388,387,387,0,0,0,388,388,388,388,388,388,388,389,390,391,391,392,392,393,393,393,394,393,392,392,392,392,392,392,392,392,392,392,392,392,393,393,393,393,393,393,393,394,394,394,394,395,395,396,396,396,396,397,397,396,396,396,395,395,395,395,395,395,395,395,395,395,396,396,396,396,396,396,396,396,396,396,396,396,396,396,396,396,396,396,395,395,395,395,395,395,395,395,396,396,396,396,396,396,395,395,395,395,395,395,395,395,395,395,395,395,396,397,397,397,397,397,397,397,397,397,397,397,397,397,397,397,397,397,397,397,397,397,397,397,397,397,397,397,397,397,397,397,397,397,397,397,397,397,397,397,397,397,397,397,397,397,397,397,397,397,397,396,396,396,396,396,396,396,396,396,396,396,396,396,396,396,396,396,396,396,396,396,396,396,396,396,396,396,396,397,397,396,396,396,396,396,396,396,396,396,396,396,396,396,396,396,397,397,397,397,397,397,396,396,396,396,396,396,396,396,396,396,396,396,396,396,396,396,396,396,395,395,394,394,394,393,393,393,392,392,391,391,390,389,389,388,388,388,387,385,385,383,381,381,379,377,377,376,374,374,372,371,371,370,369,369,369,368,368,368,368,368,368,368,368,368,369,369,370,371,372,372,373,374,375,375,375,375,375,374,373
400,400,399,399,399,399,399,399,399,399,399,399,399,399,399,399,399,399,399,399,399,399,399,399,399,399,399,399,399,399,399,399,399,399,399,399,400,400,400,400,400,400,400,400,400,400,400,400,399,399,399,399,399,399,399,399,399,399,399,399,399,399,399,400,400,400,400,400,400,400,400,400,400,400,400,400,400,400,400,399,399,399,399,399,398,396,396,394,392,392,388,388,0,0,0,377,375,375,373,372,372,371,371,371,370,370,370,370,370,370,370,371,372,372,372,373,374,375,375,376,377,377,377,376,376,376,375,375,374,374,374,373,372,372,372,371,371,372,372,372,372,372,372,373,374,374,376,378,379,379,381,383,385,385,386,388,390,390,391,392,394,394,395,396,397,397,398,399,399,399,400,400,400,400,401,401,401,401,401,401,401,401,401,401,401,401,401,401,401,401,401,400,400,400,400,400,400,400,400,399,399,399,399,399,399,399,399,399,399,399,399,399,399,399,399,399,399,399,399,399,399,399,399,399,399,399,399,399,399,399,399,399,399,399,399,399,399,399,400,400,400,400,400,400,400,400,400,400,400,400,400,400,400,400,400,400,400,399,399,399,399,399,399,399,399,399,399,399,399,399,399,399,399,399,399,399,400,400,400,400,400,400,399,399,399,399,399,399,399,399,399,399,399,399,399,399,399,399,399,399,399,399,399,398,398,398,398,398,398,398,398,398,398,398,398,398,399,399,399,399,399,399,399,399,399,399,399,399,399,399,399,399,399,399,399,399,399,399,399,398,398,398,398,398,398,398,397,397,398,397,397,397,397,397,397,397,397,397,397,397,397,397,397,397,397,397,397,396,396,396,396,396,396,396,396,396,396,395,394,394,394,394,394,394,394,394,394,394,395,395,395,396,397,397,397,397,397,397,397,397,397,397,397,397,396,396,396,394,393,393,392,391,391,391,391,390,390,390,391,0,0,0,0,0,0,392,392,392,392,391,391,391,391,391,391,391,390,390,390,390,390,390,390,390,390,389,389,390,390,390,390,389,389,389,389,388,388,388,387,387,387,387,386,386,386,386,388,388,387,387,0,0,0,385,385,385,385,386,386,386,386,390,391,391,392,392,393,393,393,394,393,392,392,388,387,387,387,388,388,388,388,389,389,393,390,390,390,390,390,390,390,390,390,391,391,392,392,393,393,394,394,394,394,394,394,394,394,394,394,394,395,395,394,394,395,395,395,395,395,395,395,395,395,395,395,395,395,395,395,395,395,395,395,395,394,394,395,395,395,395,395,395,395,396,395,394,394,394,393,393,393,392,392,392,392,392,393,393,393,394,395,395,396,396,397,397,397,397,397,396,396,397,397,396,396,396,396,396,396,396,396,397,397,397,397,397,397,397,397,397,397,397,397,397,396,396,396,396,396,396,396,396,396,396,397,396,396,396,396,396,396,396,396,396,396,396,396,396,396,396,396,396,396,396,396,396,396,396,396,396,396,396,396,396,396,396,396,396,396,396,396,396,396,396,396,396,396,396,396,396,396,396,396,396,396,396,396,397,397,397,397,396,396,396,396,396,396,396,396,396,396,396,396,396,396,396,396,396,396,395,395,394,394,394,393,393,393,392,392,391,391,390,389,389,388,388,388,387,385,385,383,381,381,379,377,377,376,374,374,372,371,371,370,369,369,369,369,368,368,368,368,368,368,368,368,369,369,370,371,372,372,373,374,375,375,376,375,375,374,373
400,400,400,400,400,400,400,400,400,400,400,400,400,400,400,400,400,400,400,400,400,400,400,400,399,399,399,399,399,399,399,399,399,399,399,400,400,400,400,400,400,400,400,400,400,400,400,400,399,399,399,399,399,399,399,399,399,399,399,399,399,399,399,400,400,400,400,400,400,400,400,400,400,400,400,400,400,400,400,399,399,399,399,399,398,397,397,395,393,393,393,0,0,0,0,0,375,375,373,372,372,371,371,371,370,370,370,370,370,370,370,371,372,373,373,374,375,375,375,376,377,377,377,377,377,376,375,375,375,374,374,373,372,372,372,372,372,372,372,372,372,372,372,373,374,374,376,378,379,379,381,383,385,385,386,388,390,390,391,392,394,394,395,396,397,397,398,399,399,399,400,400,400,400,401,401,401,401,401,401,401,401,401,401,401,401,401,401,401,401,400,400,400,400,400,400,400,400,400,399,399,399,399,399,399,399,399,399,399,399,399,399,399,399,399,399,399,399,399,399,399,399,399,399,399,399,399,399,399,399,399,399,399,399,399,399,399,399,400,400,400,400,400,400,400,400,400,400,400,400,400,400,400,400,400,400,400,399,399,399,399,399,399,399,399,399,399,399,399,399,399,399,399,399,399,399,400,400,400,400,400,400,399,399,399,399,399,399,399,399,399,399,399,399,399,399,399,399,399,399,399,399,398,398,398,398,398,398,398,398,398,398,398,398,398,398,398,399,398,398,398,399,399,399,399,399,399,399,399,399,399,399,399,399,399,399,398,398,398,398,398,398,398,397,397,397,397,396,396,396,396,396,395,395,395,395,395,395,396,395,394,394,394,395,394,394,394,394,394,394,394,393,393,393,393,393,392,392,392,390,390,394,394,394,394,394,394,394,395,395,391,391,392,392,397,397,397,394,394,394,394,395,395,395,395,396,396,394,393,393,392,391,391,391,391,390,390,390,391,0,0,0,0,0,0,392,392,388,388,388,388,388,388,388,388,388,388,388,388,388,388,388,388,388,388,387,387,387,387,387,387,387,387,387,386,386,385,385,385,385,385,384,384,384,384,383,383,383,382,382,382,382,383,383,383,383,383,383,383,383,384,384,384,385,385,0,0,0,0,0,0,0,0,388,387,387,384,384,388,388,388,389,389,0,390,390,390,390,390,390,390,390,388,388,388,388,389,389,389,390,391,391,391,391,391,391,391,392,392,392,393,393,393,393,393,393,394,393,393,393,393,393,393,393,393,393,393,393,393,393,393,393,393,393,392,392,392,391,391,392,391,391,391,391,391,391,390,390,389,389,389,389,389,389,389,389,390,390,390,392,393,393,394,395,396,396,397,397,397,396,396,396,396,396,396,396,396,396,396,396,396,396,396,396,397,397,397,397,397,397,397,396,396,396,396,396,396,396,396,396,396,396,396,396,396,396,396,396,396,396,396,396,396,396,396,396,396,396,396,396,396,396,396,396,396,396,396,396,396,396,396,396,396,396,396,396,396,396,396,396,396,396,396,396,396,396,396,396,396,396,396,396,396,396,396,396,396,396,396,396,396,396,396,396,396,396,396,396,396,396,396,396,396,396,396,396,396,396,396,395,395,394,394,394,393,393,393,392,391,391,391,390,389,389,388,388,388,387,385,385,383,381,381,0,377,377,376,374,374,372,371,371,370,370,369,369,369,369,369,368,368,368,369,369,369,370,370,370,371,372,372,373,374,375,375,375,375,375,374,373
400,400,400,400,400,400,400,400,400,400,400,400,400,400,400,400,400,400,400,400,400,400,400,400,399,399,399,399,399,399,399,399,399,399,399,400,400,400,400,400,400,400,400,400,400,399,399,399,399,399,399,399,399,399,399,399,399,399,399,399,399,399,399,400,400,400,400,400,400,400,400,400,400,400,400,400,400,400,400,399,399,399,399,399,398,397,397,395,393,393,393,0,0,0,0,0,375,375,373,372,372,371,371,371,370,370,370,370,370,370,370,371,372,373,373,374,375,375,375,376,377,377,377,377,377,376,375,375,375,374,374,373,372,372,372,372,372,372,372,372,372,372,372,373,374,374,376,377,379,379,381,383,384,384,386,388,390,390,391,392,394,394,395,396,397,397,398,399,399,399,400,400,400,400,401,401,401,401,401,401,401,401,401,401,401,401,401,400,400,400,400,400,400,400,400,400,400,400,400,399,399,399,399,399,399,399,399,399,399,399,399,399,399,399,399,399,399,399,399,399,399,399,400,400,400,400,400,400,400,400,400,400,400,400,400,400,400,400,400,400,400,400,400,400,400,400,400,400,400,400,400,400,400,400,400,400,400,400,399,399,399,399,399,399,399,399,399,399,399,399,399,399,399,399,399,399,400,400,400,400,400,400,400,400,399,399,399,399,399,399,399,399,399,399,399,399,399,399,399,399,399,399,398,398,398,398,398,398,398,398,398,398,398,398,398,398,398,398,398,398,398,399,399,399,399,399,398,398,398,398,398,398,398,398,398,398,398,398,398,397,397,397,397,397,396,396,396,395,395,394,394,394,393,392,392,392,395,395,396,395,394,394,394,395,394,390,389,389,389,389,389,390,390,390,390,388,388,387,387,387,390,0,0,0,0,0,0,0,0,0,391,391,392,392,0,0,0,394,394,394,394,395,395,395,395,0,0,0,0,0,0,0,0,382,382,382,382,379,379,379,0,0,0,0,0,0,0,388,388,388,388,385,385,386,386,386,386,386,386,386,385,385,386,386,386,385,385,385,385,385,385,385,385,385,384,384,384,383,383,383,383,382,382,382,382,381,381,381,380,380,380,380,380,381,381,380,380,380,380,381,381,381,381,382,382,382,0,0,0,0,0,0,0,380,380,380,380,380,380,380,381,0,0,0,0,0,0,382,382,382,382,383,384,384,384,388,389,389,389,390,391,388,388,388,388,389,389,389,389,390,391,391,391,392,392,392,392,392,392,391,391,391,391,391,391,391,391,393,393,393,393,393,393,393,392,392,392,391,391,392,391,391,391,391,391,391,390,390,389,389,389,389,389,389,389,389,390,390,390,392,393,393,394,395,396,396,397,397,397,396,396,396,396,396,396,396,396,396,396,396,396,396,396,396,397,397,397,397,397,397,397,396,396,396,396,396,396,396,396,396,396,396,396,396,396,396,396,396,396,396,396,396,396,396,396,396,396,396,0,396,396,396,396,396,396,396,396,396,396,396,396,396,396,396,396,396,396,396,396,396,396,396,396,396,396,396,396,396,396,396,396,396,396,396,396,396,396,396,396,396,396,396,396,396,396,396,396,396,396,396,396,396,396,396,396,396,396,396,396,395,395,395,394,394,393,393,393,392,391,391,391,390,389,389,388,388,388,387,385,385,383,381,381,0,377,377,376,374,374,372,371,371,370,370,369,369,369,369,369,369,369,369,369,369,369,370,371,371,372,372,372,373,374,375,375,375,375,375,374,373
400,400,400,400,400,400,400,400,400,400,400,400,400,400,400,400,400,400,400,400,400,400,400,400,400,400,400,399,399,399,399,399,399,400,400,400,400,400,400,400,400,400,400,400,400,399,399,399,399,399,399,399,399,399,399,399,399,399,399,399,399,399,399,400,400,400,400,400,400,400,400,400,400,400,400,400,400,400,400,399,399,399,399,399,398,397,397,396,394,394,394,0,0,0,0,0,375,375,373,372,372,371,371,371,371,370,370,370,370,371,371,371,372,373,373,374,375,376,376,376,377,377,377,377,377,376,375,375,375,374,374,373,372,372,372,372,372,372,372,372,372,372,372,373,374,374,375,377,379,379,381,382,384,384,386,388,390,390,391,392,394,394,395,396,397,397,398,399,399,399,399,400,400,400,400,401,401,401,401,401,401,401,401,401,400,400,400,400,400,400,400,400,400,400,400,400,400,399,399,399,399,399,399,399,399,399,399,399,399,399,399,399,399,399,399,399,399,399,399,399,399,400,400,400,400,400,400,400,400,400,400,400,400,400,400,400,400,400,400,400,400,400,400,400,400,400,400,400,400,400,400,400,400,400,400,400,400,400,400,400,400,400,399,399,399,399,399,399,399,399,399,399,399,399,399,400,400,400,400,400,400,400,400,400,400,399,399,399,399,399,399,399,399,399,399,399,399,399,399,399,399,399,398,398,398,398,398,398,398,398,398,398,398,398,398,398,398,398,398,398,398,399,399,399,399,399,398,398,398,398,398,398,398,398,398,398,398,398,398,397,397,397,397,397,396,396,396,395,395,394,394,394,393,392,392,392,0,0,0,0,0,0,0,0,0,390,389,389,389,389,389,390,390,390,390,388,388,387,387,387,0,0,0,0,0,0,0,0,0,0,0,0,0,0,0,0,0,0,0,0,0,0,0,0,0,0,0,0,0,0,0,0,0,382,382,382,382,379,379,379,0,0,0,0,0,0,0,0,0,0,0,385,385,386,386,386,386,386,386,386,385,385,386,386,386,385,385,385,385,385,385,385,385,385,384,384,384,383,383,383,383,382,382,382,382,381,381,381,380,380,380,380,380,381,381,380,380,380,380,381,381,381,381,382,382,382,0,0,0,0,0,0,0,380,380,380,380,380,380,380,381,0,0,0,0,0,0,382,382,382,382,383,384,384,384,0,0,0,0,0,0,388,388,388,388,389,389,389,389,390,391,391,391,392,392,392,392,392,392,391,391,391,391,391,391,391,390,390,390,390,391,391,391,390,390,390,389,388,388,388,388,388,391,391,391,391,390,390,389,389,389,389,389,385,385,386,386,386,387,388,388,388,389,390,390,392,393,393,393,394,394,395,395,395,395,395,395,396,396,396,396,396,396,396,396,396,396,396,396,396,396,396,396,396,396,396,396,396,396,396,396,396,396,396,396,396,396,396,396,396,396,396,396,396,396,396,396,396,396,396,396,396,396,396,396,396,396,396,396,396,396,396,396,396,396,396,396,396,396,396,396,396,396,396,396,396,396,396,396,396,396,396,396,396,396,396,396,396,396,396,396,396,396,396,396,396,396,396,396,396,396,396,396,396,396,396,396,396,396,395,395,395,394,394,393,393,393,392,391,391,391,390,389,389,388,387,387,387,385,385,383,381,381,0,377,377,376,374,374,372,371,371,370,370,369,369,369,369,369,369,369,369,369,369,369,370,371,371,372,372,372,373,374,375,375,375,374,374,373,373
400,400,400,400,400,400,400,400,400,400,400,400,400,400,400,400,400,400,400,400,400,400,400,400,400,400,400,400,400,400,400,400,400,400,400,400,400,400,400,400,400,400,400,400,400,400,400,400,399,399,399,399,399,399,399,399,399,399,399,399,399,399,400,400,400,400,400,400,400,400,400,400,400,400,400,400,400,400,400,399,399,399,399,399,398,398,398,397,395,395,0,0,0,0,0,0,375,375,373,372,372,372,371,371,371,370,370,370,370,371,371,371,372,373,373,374,375,376,376,376,377,377,377,377,377,376,375,375,375,374,374,373,372,372,372,372,372,372,372,372,372,372,372,373,374,374,375,377,379,379,381,382,384,384,386,388,390,390,391,392,394,394,395,396,397,397,398,399,399,399,399,400,400,400,400,401,401,401,401,401,401,401,401,401,400,400,400,400,400,400,400,400,400,400,400,400,400,399,399,399,399,399,399,399,399,399,399,399,399,399,399,399,399,399,399,399,399,399,400,400,400,400,400,400,400,400,400,400,400,400,400,400,400,400,400,400,400,400,400,400,400,400,400,400,400,400,400,400,400,400,400,400,400,400,400,400,400,400,400,400,400,400,399,399,399,399,399,399,399,399,399,399,399,399,399,400,400,400,400,400,400,400,400,400,400,399,399,399,399,399,399,399,399,399,399,399,399,399,399,399,399,399,398,398,398,398,398,398,398,398,398,398,398,398,398,398,398,398,398,398,398,398,398,398,398,398,398,398,398,398,398,398,398,398,398,398,397,397,397,397,397,397,396,396,396,395,394,393,393,392,391,391,390,390,392,392,0,0,0,0,0,0,0,0,0,390,389,389,389,389,389,390,390,390,390,388,388,387,387,387,0,380,380,0,0,0,0,0,0,0,0,0,0,0,0,0,0,0,0,0,0,0,0,0,0,0,0,0,0,0,0,0,0,378,378,378,378,378,378,378,0,0,0,0,0,0,0,381,381,382,382,382,383,383,384,384,384,384,384,384,384,384,384,384,384,384,384,384,384,383,383,383,383,383,383,382,382,382,382,381,381,381,380,380,380,380,380,379,379,379,379,379,379,379,379,378,378,378,378,378,378,378,378,378,378,378,378,0,0,0,0,0,377,377,377,377,377,377,377,377,377,0,0,0,0,0,379,379,379,379,379,380,380,380,381,0,0,0,0,0,385,385,385,385,385,386,389,389,387,387,388,388,389,390,390,390,389,389,389,389,388,388,388,388,388,388,388,388,388,388,388,388,388,388,388,390,386,385,385,385,385,385,385,0,0,0,0,0,0,0,0,0,382,382,382,382,382,386,387,388,388,388,389,390,390,392,393,390,390,390,391,391,392,393,394,394,394,395,395,395,395,395,395,396,396,396,396,396,396,396,396,396,396,396,396,396,396,396,396,396,396,396,396,396,396,396,396,396,396,396,396,396,396,396,396,396,396,396,396,396,396,396,396,396,396,396,396,396,396,396,396,396,396,396,396,396,396,396,396,396,396,396,396,396,396,396,396,396,396,396,396,396,396,396,396,396,396,396,396,396,396,396,396,396,396,396,396,396,396,396,396,396,396,396,396,396,396,396,396,395,395,395,394,394,393,393,393,392,391,391,391,390,389,389,388,387,387,386,385,385,383,381,381,379,377,377,376,374,374,372,371,371,371,370,370,370,369,369,369,369,369,369,369,369,370,370,371,371,372,372,372,373,374,374,374,375,374,374,373,372
400,400,400,400,400,400,400,400,400,400,400,400,400,400,400,400,400,400,400,400,400,400,400,400,400,400,400,400,400,400,400,400,400,400,400,400,400,400,400,400,400,400,400,400,400,400,400,400,399,399,399,399,399,399,399,399,399,399,399,399,399,399,400,400,400,400,400,400,400,400,400,400,400,400,400,400,400,400,400,399,399,399,399,399,398,398,398,397,395,395,393,393,0,0,0,0,375,375,373,372,372,372,371,371,371,370,370,370,370,371,371,371,372,373,373,374,375,376,376,376,377,377,377,377,377,376,375,375,375,374,374,373,372,372,372,372,372,372,372,372,372,372,372,373,374,374,375,377,378,378,380,382,384,384,386,388,390,390,391,392,394,394,395,396,397,397,398,399,399,399,399,400,400,400,400,400,400,400,400,400,400,400,400,400,400,400,400,400,400,400,400,400,400,400,400,400,400,399,399,399,399,399,399,399,399,399,399,399,399,399,399,399,399,399,399,399,399,399,399,400,400,400,400,400,400,400,400,400,400,400,400,400,400,400,400,400,400,400,400,400,400,400,400,400,400,400,400,400,400,400,400,400,400,400,400,400,400,400,400,400,400,400,399,399,399,399,399,399,399,399,399,399,399,399,399,399,400,400,400,400,400,400,400,400,400,400,399,399,399,399,399,399,399,399,399,399,399,399,399,399,399,398,398,398,398,398,398,398,398,398,398,398,398,398,398,398,398,398,398,398,398,398,398,398,398,398,398,398,398,398,398,398,398,397,397,397,397,396,396,396,396,396,395,395,395,394,392,392,392,390,390,391,390,390,0,0,0,0,0,0,0,0,0,0,376,376,376,376,382,383,383,383,383,384,384,384,0,377,377,380,380,379,378,378,378,378,378,0,0,0,0,380,380,0,0,0,0,0,0,0,0,0,0,0,0,0,0,0,0,0,0,376,376,375,375,375,374,374,374,374,374,0,374,374,0,376,376,377,378,378,379,380,381,381,382,382,382,382,382,382,382,382,382,382,382,382,382,382,382,382,382,382,381,381,381,381,381,380,380,380,380,380,379,379,379,379,380,379,379,378,378,378,378,378,378,378,378,378,378,377,377,377,377,377,377,376,376,0,0,0,0,375,375,375,375,375,375,375,375,375,375,375,375,0,0,376,376,376,376,376,376,377,377,378,378,379,379,380,380,381,381,382,382,382,383,383,384,384,384,385,386,386,389,390,390,390,389,389,389,389,388,385,385,385,385,385,385,385,385,385,385,385,385,388,388,0,383,383,383,382,382,385,385,0,0,0,0,0,0,0,379,379,379,379,379,379,379,379,380,380,0,0,0,0,0,0,0,390,390,390,391,389,389,390,390,392,392,393,393,394,394,394,394,395,395,395,395,396,396,396,396,395,395,395,396,396,396,396,396,396,396,396,396,396,396,396,396,396,396,396,396,396,396,396,396,396,396,396,396,396,396,396,396,396,396,396,396,396,396,396,396,396,396,396,396,396,396,396,396,396,396,396,396,396,396,396,396,396,396,396,396,396,396,396,396,396,396,396,396,396,396,396,396,396,396,396,396,396,396,396,396,396,396,396,396,396,396,396,396,395,395,395,394,394,394,393,393,392,391,391,391,390,389,389,388,388,388,386,385,385,383,381,381,379,378,378,376,374,374,373,372,371,371,370,370,370,369,369,369,369,369,369,369,369,370,370,371,371,372,372,372,373,374,374,374,375,374,374,373,372
400,400,400,400,400,400,400,400,400,400,400,400,400,401,401,401,401,401,401,401,401,400,400,400,400,400,400,400,400,400,400,400,400,400,400,400,400,400,400,400,400,400,400,400,400,400,400,400,399,399,399,399,399,399,399,399,399,400,400,400,400,400,400,400,400,400,400,400,400,400,400,400,400,400,400,400,400,400,400,400,400,399,399,399,398,398,398,397,396,396,393,389,389,384,384,379,375,375,373,372,372,372,371,371,371,370,370,370,370,371,371,371,372,373,373,374,375,376,376,377,377,377,377,377,377,376,375,375,374,374,374,373,372,372,372,372,372,372,372,372,372,372,372,373,374,374,375,376,376,378,380,382,384,384,385,388,389,389,391,393,394,394,395,396,397,397,398,399,399,399,399,400,400,400,400,400,400,400,400,400,400,400,400,400,400,400,400,400,400,400,400,400,400,400,400,400,400,400,400,399,399,399,399,399,399,399,399,399,399,399,399,399,399,399,399,399,399,399,399,400,400,400,400,400,400,400,400,400,400,400,400,400,400,400,400,400,400,400,400,400,400,400,400,400,400,400,400,400,400,400,400,400,400,400,400,400,400,400,400,400,400,400,400,400,399,399,399,399,399,399,399,399,399,399,399,399,400,400,400,400,400,400,400,400,400,400,399,399,399,399,399,399,399,399,399,399,399,399,399,399,399,398,398,398,398,398,398,398,398,398,398,398,398,398,398,398,397,397,397,397,397,397,397,398,398,397,397,397,397,397,397,397,397,397,397,396,396,396,396,395,394,394,394,393,393,392,391,391,390,390,390,386,385,385,383,381,381,380,380,0,0,0,0,0,374,374,374,376,379,380,380,380,381,381,381,377,377,377,377,378,378,377,376,376,376,376,376,376,376,377,377,377,378,378,379,379,379,379,379,0,0,0,0,0,0,0,0,0,0,0,0,376,376,375,375,375,374,374,374,374,374,0,374,374,0,376,376,377,378,378,379,380,381,381,382,382,382,382,382,382,382,382,382,382,382,382,382,382,382,382,382,382,381,381,381,381,381,380,380,380,380,380,379,379,379,379,0,0,0,378,378,378,378,378,378,378,378,378,378,377,377,377,377,377,377,376,376,0,0,0,0,375,375,375,375,375,375,375,375,375,375,375,375,0,0,376,376,376,376,376,376,377,377,378,378,379,379,380,380,381,381,382,382,382,383,383,384,384,384,385,386,386,0,0,0,0,0,0,0,0,0,385,385,385,385,385,385,385,385,385,385,385,385,0,0,0,383,383,383,382,382,0,0,0,0,0,0,0,0,0,379,379,379,379,379,379,379,379,380,380,0,0,0,0,0,0,0,0,0,0,0,389,389,390,390,392,392,393,393,394,394,394,394,395,395,395,395,396,396,396,396,395,395,395,396,396,396,396,396,396,396,396,396,396,396,396,396,396,396,396,396,396,396,396,396,396,396,396,396,396,396,396,396,396,396,396,396,396,396,396,396,396,396,396,396,396,396,396,396,396,396,396,396,396,396,396,396,396,396,396,396,396,396,396,396,396,396,396,396,396,396,396,396,396,396,396,396,396,396,396,396,396,396,396,396,396,396,396,396,395,395,395,394,394,394,393,392,392,391,391,391,390,389,389,388,387,387,386,385,385,383,381,381,379,378,378,376,374,374,373,372,371,371,370,370,370,369,369,369,369,369,369,369,369,370,370,371,371,371,372,372,373,373,374,374,374,373,373,373,372
400,400,400,400,400,400,400,400,400,400,401,401,401,401,401,401,401,401,401,401,401,401,401,401,400,400,400,400,400,400,400,400,400,400,400,400,400,400,400,400,400,400,400,400,400,400,400,400,400,399,399,399,399,399,399,399,400,400,400,400,400,400,400,400,400,400,400,400,400,400,400,400,400,400,400,400,400,400,400,400,400,399,399,399,399,398,398,397,396,396,392,389,389,384,384,379,375,375,374,373,373,372,371,371,371,371,371,371,371,371,372,372,372,373,373,374,375,376,376,377,377,377,377,377,377,376,375,375,374,374,374,373,372,372,372,372,372,372,372,372,372,372,372,373,374,374,375,376,376,378,380,382,384,384,385,388,389,389,391,393,394,394,395,396,397,397,398,399,399,399,399,400,400,400,400,400,400,400,400,400,400,400,400,400,400,400,400,400,400,400,400,400,400,400,400,400,400,400,400,400,399,399,399,399,399,399,399,399,399,399,399,399,399,399,399,399,399,399,399,400,400,400,400,400,400,400,400,400,401,401,401,400,400,400,400,400,400,400,401,401,400,400,400,400,400,400,400,400,400,400,400,400,400,400,400,400,400,400,400,400,400,400,400,400,400,399,399,399,399,399,399,399,399,399,399,399,400,400,400,400,400,400,400,400,400,400,399,399,399,399,399,399,399,399,399,399,399,399,399,399,399,398,398,398,398,398,398,398,398,398,398,398,398,398,398,398,397,397,397,397,397,397,397,398,398,397,397,397,397,397,397,397,397,397,397,396,396,396,396,395,394,394,394,393,393,392,391,391,390,390,0,386,385,385,383,381,381,380,380,0,0,0,0,0,374,374,374,377,379,380,380,380,381,381,381,377,377,377,379,378,378,377,376,376,376,376,376,376,376,377,377,377,378,378,379,379,379,379,379,379,379,0,0,0,0,0,0,0,375,374,374,374,374,374,373,373,374,374,373,373,373,373,374,374,375,375,376,377,377,377,378,379,380,380,380,381,381,381,381,381,381,381,381,381,381,381,381,381,380,380,380,380,380,380,380,380,380,380,379,379,379,379,379,379,379,379,0,0,0,378,378,378,378,378,378,378,378,378,378,377,377,377,377,377,377,376,376,376,376,375,375,375,375,375,374,374,374,374,374,374,374,374,374,374,374,374,375,375,375,375,375,376,376,376,376,376,377,377,378,378,378,379,380,380,380,381,381,381,382,382,382,383,383,383,383,0,0,0,0,0,0,382,382,382,382,382,382,382,382,385,385,385,382,382,382,381,380,380,380,379,379,378,378,378,377,376,376,376,376,376,376,376,376,376,376,376,376,376,376,377,377,0,0,0,0,0,0,0,0,0,0,389,389,390,390,392,392,392,392,392,393,393,393,394,394,395,395,395,395,395,395,395,395,395,395,395,395,396,396,396,396,396,396,396,396,396,396,396,396,396,396,396,396,396,396,396,396,396,396,396,396,396,396,396,396,396,396,396,396,396,396,396,396,396,396,396,396,396,396,396,396,396,396,396,396,396,396,396,396,396,396,396,396,396,396,396,396,396,396,396,396,396,396,396,396,396,396,396,396,396,396,396,396,396,396,396,396,396,396,395,395,395,394,394,394,393,392,392,392,391,391,390,389,389,388,387,387,386,385,385,383,381,381,380,378,378,376,375,375,373,372,371,371,371,370,370,370,369,369,369,369,369,370,370,370,370,371,371,371,372,372,372,373,373,373,373,373,373,372,371
400,400,400,400,400,400,400,400,400,401,401,401,401,401,401,401,401,401,401,401,401,401,401,401,400,400,400,400,400,400,400,400,400,400,400,400,400,400,400,401,401,400,400,400,400,400,400,400,400,400,400,400,399,399,399,399,400,400,400,400,400,400,400,400,400,400,400,400,400,400,400,400,400,400,400,400,400,400,400,400,400,399,399,399,399,398,398,397,396,396,392,389,389,384,384,379,379,0,0,373,373,372,371,371,371,371,371,371,371,371,372,372,372,373,373,374,375,376,376,377,377,377,377,376,376,376,375,375,374,374,374,373,372,372,372,372,372,372,372,372,372,372,372,373,374,374,375,376,376,378,380,381,383,383,385,388,389,389,391,393,394,394,395,396,397,397,398,399,399,399,399,400,400,400,400,400,400,400,400,400,400,400,400,400,400,400,400,400,400,400,400,400,400,400,400,400,400,400,400,400,399,399,399,399,399,399,399,399,399,399,399,399,399,399,399,399,399,399,399,400,400,400,400,400,400,400,400,400,401,401,401,400,400,400,400,400,400,400,401,401,400,400,400,400,400,400,400,400,400,400,400,400,400,400,400,400,400,400,400,400,400,400,400,400,400,399,399,399,399,399,399,399,399,399,399,399,400,400,400,400,400,400,400,400,400,400,399,399,399,399,399,399,399,399,399,399,399,399,398,398,398,398,398,398,398,398,398,398,398,398,398,397,397,397,397,397,397,397,397,397,397,397,397,397,397,397,396,396,396,396,396,396,396,396,396,395,395,395,394,394,393,393,392,392,392,390,389,389,388,386,386,384,382,382,381,379,379,377,375,375,374,374,374,374,374,374,374,375,376,377,377,377,378,378,378,377,377,377,378,377,377,377,376,376,376,376,376,376,376,377,377,377,378,378,378,378,378,378,378,378,378,378,377,377,377,376,375,375,375,374,374,374,374,374,373,373,374,374,373,373,373,373,374,374,375,375,376,376,377,377,377,378,379,379,379,380,380,380,381,381,381,380,380,380,380,380,380,380,380,380,380,380,380,380,379,379,379,379,379,379,379,379,379,379,379,378,378,378,0,378,378,378,378,378,378,378,378,378,378,377,377,377,377,377,377,377,376,376,376,375,375,375,375,375,374,374,374,374,374,374,374,374,374,374,374,374,375,375,375,375,375,375,375,375,375,375,375,376,376,376,377,377,378,378,378,379,379,380,381,381,381,381,381,381,381,0,0,0,0,0,0,379,379,379,379,379,379,379,379,0,0,380,380,380,380,379,379,379,378,378,378,377,377,377,376,376,375,375,375,375,375,375,375,374,374,374,374,374,374,375,375,375,375,375,376,376,377,378,379,379,381,382,384,385,385,387,388,390,390,390,391,392,392,393,394,394,394,394,394,394,395,395,395,395,395,395,395,396,396,396,396,396,396,396,396,396,396,396,396,396,396,396,396,396,396,396,396,396,396,396,396,396,396,396,396,396,396,396,396,396,396,396,396,397,397,396,396,396,396,396,396,396,396,396,396,396,396,396,396,396,396,396,396,396,396,396,396,396,396,396,396,396,396,396,396,396,396,396,396,396,396,396,396,396,396,396,396,396,396,396,396,395,395,395,394,393,392,392,392,391,391,390,389,389,388,387,387,386,384,384,383,381,381,380,378,378,376,375,374,373,372,371,371,371,370,370,370,369,369,369,369,370,370,370,370,370,371,371,371,372,372,372,372,372,372,372,372,372,371,371
400,400,400,400,400,400,400,400,400,401,401,401,401,401,401,401,401,401,401,401,401,401,401,401,400,400,400,400,400,400,400,400,400,400,400,400,400,400,400,401,401,400,400,400,400,400,400,400,400,400,400,400,399,399,399,399,400,400,400,400,400,400,400,400,400,400,400,400,400,400,400,400,400,400,400,400,400,400,400,400,400,399,399,399,399,398,398,397,396,396,392,389,389,384,384,379,376,376,374,373,373,372,371,371,371,371,371,371,371,371,372,372,373,374,374,375,375,376,376,377,377,377,377,376,376,376,375,375,374,373,373,373,372,372,372,371,371,372,372,372,372,372,372,373,374,374,375,376,376,378,380,381,383,383,385,388,389,389,391,393,394,394,395,396,397,397,398,399,399,399,399,400,400,400,400,400,400,400,400,400,400,400,400,400,400,400,400,400,400,400,400,400,400,400,400,400,400,400,400,400,400,400,400,400,399,399,399,399,399,399,399,399,399,399,399,399,399,399,399,400,400,400,400,400,400,400,400,400,401,401,401,401,401,401,401,401,401,401,401,401,401,401,400,400,400,400,400,400,400,400,400,400,400,400,400,400,400,400,400,400,400,400,400,400,400,399,399,399,399,399,399,399,399,399,399,400,400,400,400,400,400,400,400,400,400,400,399,399,399,399,399,399,399,399,399,398,398,398,398,398,398,398,398,398,398,398,398,398,398,398,398,397,397,397,397,397,397,397,396,396,396,396,396,396,396,396,396,396,395,395,395,395,395,394,394,394,393,393,392,392,392,392,391,390,390,388,387,387,386,384,384,383,381,381,380,378,378,377,375,375,374,374,374,374,374,374,374,374,375,375,375,376,376,377,377,377,378,378,378,377,377,377,377,377,376,376,376,376,376,377,377,377,378,378,378,378,378,378,378,378,378,378,377,377,377,376,375,375,375,375,375,374,374,374,374,374,374,374,374,374,374,374,374,375,375,375,376,376,377,377,377,378,379,379,379,380,380,380,380,381,380,380,380,380,380,380,380,380,380,380,380,380,380,380,379,379,379,379,379,379,379,379,379,379,379,378,378,378,379,378,378,378,378,378,378,378,378,378,378,378,378,378,377,377,377,377,377,377,376,376,376,376,375,375,375,375,375,375,375,375,375,375,375,375,375,375,375,375,375,375,375,375,375,375,375,375,375,376,376,376,376,377,377,377,378,379,379,379,381,381,381,381,381,381,381,0,0,0,0,0,0,379,379,379,379,379,379,379,379,0,0,380,380,380,380,379,379,379,378,378,378,377,377,377,376,376,375,375,375,375,375,375,375,374,374,374,374,374,374,375,375,375,375,375,376,376,377,378,379,379,381,382,384,385,385,387,388,390,390,390,391,392,392,393,394,394,394,394,394,394,395,395,395,395,395,396,396,396,396,396,396,396,396,396,396,396,396,396,396,396,396,396,396,396,396,396,396,396,396,396,396,396,396,396,396,396,396,396,396,396,396,397,397,397,397,397,396,396,396,396,396,396,396,396,396,396,396,396,396,396,396,396,396,396,396,396,396,396,396,396,396,396,396,396,396,396,396,396,396,396,396,396,396,396,396,396,396,396,396,396,396,395,395,395,394,394,393,393,392,391,391,390,389,389,388,387,387,386,384,384,383,381,381,380,378,378,376,375,374,374,373,372,372,371,370,370,370,370,370,370,370,370,370,370,370,371,371,371,371,372,372,372,372,372,372,372,372,372,371,371
399,399,400,400,400,400,400,400,400,400,401,401,401,401,401,401,401,402,402,402,402,401,401,401,401,400,400,400,400,400,400,400,400,400,400,401,401,401,401,401,401,401,400,400,400,400,400,400,400,400,400,400,400,400,400,400,400,400,400,400,400,400,400,400,400,400,400,400,400,400,400,400,400,400,400,400,400,400,400,399,399,399,399,399,398,398,398,397,396,396,393,390,390,384,384,379,376,376,374,373,373,372,372,372,371,371,371,371,371,371,372,372,373,374,374,375,376,376,376,377,377,377,377,376,376,376,375,375,374,373,373,372,372,372,371,371,371,372,371,371,372,372,372,373,374,374,375,376,376,378,380,381,383,383,385,387,389,389,391,393,394,394,395,396,397,397,398,399,399,399,400,400,400,400,400,400,400,400,400,400,400,400,400,400,400,400,400,400,400,400,400,400,400,400,400,400,400,400,400,400,400,400,400,400,399,399,399,399,399,399,399,399,399,399,399,399,399,399,399,399,399,400,400,400,400,400,400,400,401,401,401,401,401,401,401,401,401,401,401,401,401,401,400,400,400,400,400,400,400,400,400,400,400,400,400,400,400,400,400,400,400,400,400,400,400,400,400,399,399,399,399,399,399,399,399,400,400,400,400,400,400,400,400,400,400,400,399,399,399,399,399,399,399,399,399,398,398,398,398,398,398,398,398,398,398,398,398,398,398,398,398,398,397,397,397,397,397,397,396,396,396,396,396,396,396,396,396,396,395,395,395,395,395,394,394,394,393,393,392,392,392,392,391,390,390,388,387,387,386,384,384,383,381,381,380,378,378,377,376,376,375,374,374,374,374,374,374,374,375,375,375,376,376,377,377,377,378,378,378,377,377,377,377,377,377,377,377,377,377,378,378,378,378,378,379,379,379,379,379,378,378,378,378,377,377,377,376,376,376,376,376,375,375,375,375,375,375,375,375,375,375,375,375,376,376,376,376,377,377,377,378,378,379,379,380,380,380,380,380,381,380,380,381,380,380,380,380,380,380,380,380,380,380,380,380,380,380,380,379,379,379,379,379,379,379,379,379,379,379,379,379,379,379,379,379,379,379,379,378,378,378,378,378,378,378,378,377,377,377,377,377,376,376,376,376,376,376,376,376,376,376,376,376,376,376,376,376,376,376,376,376,376,376,376,376,376,376,376,376,376,376,377,377,377,378,379,379,379,379,380,380,379,379,379,379,0,0,0,0,0,0,377,377,377,377,377,377,377,377,378,378,378,378,378,378,378,378,378,377,377,377,377,377,377,376,376,375,375,375,375,375,375,375,374,374,374,374,374,374,374,374,374,374,374,374,374,375,377,378,378,379,380,384,383,383,385,386,386,387,388,388,388,389,390,391,391,392,392,393,393,394,394,395,395,395,395,395,396,396,396,396,396,396,396,396,396,396,396,395,395,395,395,395,396,396,396,396,396,396,396,396,396,396,396,396,396,396,396,396,396,396,397,397,397,397,397,396,396,396,396,396,396,396,396,396,396,396,396,396,396,396,396,396,396,396,396,396,396,396,396,396,396,396,396,396,396,396,396,396,396,396,396,396,396,396,396,396,396,396,396,396,395,395,395,394,394,393,393,392,391,391,390,389,389,388,387,387,385,384,384,382,381,381,379,378,378,376,375,374,374,373,372,372,371,370,370,370,370,370,370,370,370,370,370,370,371,371,371,371,371,371,372,372,372,372,372,372,371,371,370
399,399,400,400,400,400,400,400,400,400,401,401,401,401,401,402,402,402,402,402,402,402,401,401,401,401,401,401,401,401,401,401,401,401,401,401,401,401,401,401,401,401,401,401,400,400,400,400,400,400,400,400,400,400,400,400,400,400,400,400,400,400,400,400,400,401,401,401,401,400,400,400,400,400,400,400,400,400,400,399,399,399,399,399,398,398,398,0,0,0,0,390,390,384,384,380,377,377,375,374,374,373,372,372,372,371,371,371,371,372,372,372,373,374,374,375,376,377,377,377,377,377,377,376,376,376,375,375,374,373,373,372,372,372,371,371,371,372,371,371,372,372,372,373,374,374,375,376,376,378,380,382,383,383,385,387,389,389,391,393,394,394,395,396,397,397,398,399,399,399,400,400,400,400,400,400,400,400,400,400,400,400,400,400,400,400,400,400,400,400,400,400,400,400,400,400,400,400,400,400,400,400,400,400,400,400,400,399,399,399,399,399,399,399,399,399,399,399,399,399,399,400,400,400,400,400,400,400,401,401,401,401,401,401,401,401,401,401,401,401,401,401,400,400,400,400,400,400,400,400,400,400,400,400,400,400,400,400,400,400,400,400,400,400,400,400,400,399,399,399,399,399,399,399,399,400,400,400,400,400,400,400,400,400,400,399,399,399,399,399,399,399,399,399,398,398,398,398,398,398,398,398,398,398,398,398,398,398,398,398,398,397,397,397,397,396,396,396,396,396,396,396,396,395,395,395,395,395,394,394,394,393,393,392,392,392,391,391,390,390,390,389,389,389,388,387,386,386,385,383,383,382,381,381,380,378,378,377,376,376,375,374,374,374,374,374,374,374,375,375,375,376,376,377,377,377,378,378,378,377,377,377,377,377,377,377,377,377,377,378,378,378,378,378,379,379,379,379,379,378,378,378,378,377,377,377,376,376,376,376,376,375,375,375,375,375,375,375,375,375,375,375,375,376,376,376,376,377,377,377,378,378,379,379,380,380,380,380,380,381,380,380,381,380,380,380,380,380,380,380,380,380,380,380,380,380,380,380,379,379,379,379,379,379,379,379,379,379,379,379,379,379,379,379,379,379,379,379,378,378,378,378,378,378,378,378,377,377,377,377,377,376,376,376,376,376,376,376,376,376,376,376,376,376,376,376,376,376,376,376,376,376,376,376,376,376,376,376,376,376,376,377,377,377,378,379,379,379,379,379,379,379,379,379,378,377,377,376,376,376,376,376,376,376,376,376,376,376,376,377,377,377,377,377,377,377,377,377,377,377,377,377,377,377,377,376,376,376,376,375,375,375,375,374,374,374,374,374,374,374,374,374,374,374,374,374,375,376,377,377,378,379,380,380,381,382,384,384,385,385,385,385,386,387,387,387,388,389,389,389,391,392,392,394,394,395,395,396,396,396,396,396,396,396,396,396,396,396,395,395,395,395,395,396,396,396,396,396,396,396,396,396,396,396,396,396,396,396,396,397,397,397,397,397,397,397,397,397,397,397,397,397,396,396,396,396,396,396,396,396,396,396,396,396,396,396,396,396,396,396,396,396,396,396,396,396,396,396,396,396,396,396,396,396,396,396,396,396,396,396,396,396,395,395,395,394,393,393,392,391,391,390,389,389,388,387,387,385,384,384,382,382,0,379,378,378,376,375,374,374,373,372,372,371,370,370,370,370,370,370,370,370,370,370,370,371,371,371,371,371,371,372,372,372,371,371,371,371,370,370
399,399,399,399,399,399,400,400,400,400,401,401,401,401,401,402,402,402,402,402,402,402,401,401,401,401,401,401,401,401,401,401,401,401,401,401,401,401,401,401,401,401,400,400,400,400,400,400,400,400,400,400,400,400,400,400,400,400,400,400,400,400,400,400,400,401,401,401,401,400,400,400,400,400,400,400,400,400,400,399,399,399,399,399,398,398,398,0,0,0,0,390,390,384,384,380,377,377,375,374,374,373,372,372,372,371,371,371,371,372,372,372,373,374,374,375,376,377,377,377,377,377,377,376,376,376,375,375,374,373,373,372,372,372,371,371,371,371,371,371,372,372,372,373,374,374,375,376,376,378,380,382,383,383,385,387,389,389,391,393,394,394,395,396,397,397,398,399,399,399,400,400,400,400,400,400,400,400,400,400,400,400,400,400,400,400,400,400,400,400,400,400,400,400,400,400,400,400,400,400,400,400,400,400,400,400,400,399,399,399,399,399,399,399,399,399,399,399,399,399,399,400,400,400,400,400,400,400,401,401,401,401,401,401,401,401,401,401,401,401,401,401,401,401,400,400,400,400,400,400,400,400,400,400,400,400,400,400,400,400,400,400,400,400,400,400,400,399,399,399,399,399,399,400,400,400,400,400,400,400,400,400,400,400,400,399,399,399,399,399,399,399,399,399,398,398,398,398,398,398,398,398,398,398,398,398,398,398,398,398,398,397,397,396,396,396,395,395,395,394,394,394,394,394,394,394,393,393,392,392,392,391,391,391,390,390,389,389,388,388,388,388,387,387,387,386,386,385,384,383,382,382,380,380,380,378,378,377,376,376,376,375,375,375,374,374,374,375,376,376,376,377,377,378,378,378,378,378,378,378,378,378,378,378,378,378,378,378,378,378,379,379,379,379,379,379,379,379,379,379,379,379,378,378,378,377,377,377,377,377,377,377,377,376,376,376,376,376,376,376,376,376,376,376,376,376,377,377,378,378,378,379,380,380,380,380,380,381,381,381,381,381,381,381,381,381,381,381,380,380,380,380,380,380,380,380,380,380,380,380,380,380,380,380,380,380,380,380,380,380,380,380,380,380,380,380,380,380,380,380,380,380,379,379,379,379,378,378,378,378,378,378,377,377,377,377,377,377,377,377,377,377,377,377,377,377,377,377,377,377,377,377,377,377,377,377,377,377,377,377,377,377,378,378,378,379,379,379,379,379,379,379,379,379,378,377,377,376,376,376,376,376,376,376,376,376,376,376,376,377,377,377,377,377,377,377,377,377,377,377,378,378,378,377,377,377,376,376,376,376,376,376,375,375,375,375,375,375,375,375,375,375,375,375,375,375,375,376,377,377,378,379,380,380,381,381,382,382,383,383,383,383,383,383,383,384,388,389,386,386,387,390,390,392,394,395,395,395,396,396,396,396,396,396,396,396,396,396,396,396,395,395,396,396,396,396,396,396,396,396,396,396,396,396,396,396,396,397,397,397,397,397,397,397,397,397,397,397,397,397,397,397,397,396,396,397,396,396,396,396,396,396,396,396,396,396,396,396,396,396,396,396,396,396,396,396,396,396,396,396,396,396,396,396,396,396,396,396,396,396,396,396,395,395,395,394,393,393,392,391,391,390,389,389,388,387,387,385,384,384,382,382,0,379,378,378,376,375,374,374,373,372,372,371,371,371,370,370,370,370,370,370,370,370,370,371,371,371,371,371,371,372,372,372,371,371,371,371,370,370
399,399,399,399,399,399,399,399,400,400,400,400,401,401,401,402,402,402,402,402,402,402,402,402,401,401,401,401,401,401,401,401,401,401,401,401,401,401,401,401,401,401,400,400,400,400,400,400,400,400,400,400,400,400,400,400,400,400,400,400,401,401,401,401,401,401,401,401,401,401,401,401,400,400,400,400,400,400,399,399,399,399,399,399,398,398,0,0,0,0,0,0,0,384,384,380,378,378,378,374,374,373,373,373,372,372,372,371,371,372,373,373,374,374,374,375,376,377,377,377,377,377,377,376,376,376,375,375,374,373,373,372,372,372,371,371,371,371,371,371,372,372,372,373,374,374,375,376,376,378,380,382,384,384,385,387,389,389,391,393,394,394,395,396,397,397,398,399,399,399,400,400,400,400,400,400,400,400,400,400,400,400,399,399,400,400,400,400,400,400,400,400,400,400,400,400,400,400,400,400,400,400,400,400,400,400,400,400,400,399,399,399,399,399,399,399,399,399,399,399,399,400,400,400,400,400,400,400,401,401,401,401,401,401,401,401,401,401,401,401,401,401,401,401,400,400,400,400,400,400,400,400,400,400,400,400,400,400,400,400,400,400,400,400,400,400,400,399,399,399,399,399,400,400,400,400,400,400,400,400,400,400,400,400,399,399,399,399,399,399,399,399,398,398,398,398,398,398,398,398,398,398,398,398,398,398,398,398,398,398,398,397,397,396,396,395,394,394,394,393,393,392,392,392,392,392,391,391,390,390,390,389,389,389,388,388,388,387,386,386,386,386,386,386,385,385,385,384,384,383,382,382,380,380,380,379,379,378,377,377,376,376,376,376,376,376,376,376,376,377,377,378,378,379,379,379,380,380,380,380,380,380,380,380,380,380,0,0,380,380,380,380,380,380,380,380,380,380,380,380,379,379,379,378,378,378,378,378,378,378,378,378,378,378,378,378,378,378,378,378,378,378,378,378,378,378,378,378,379,379,379,380,380,380,381,381,381,381,381,381,381,381,381,381,381,381,381,381,381,381,381,381,381,381,381,381,381,381,381,381,381,381,381,381,381,381,381,381,381,380,380,380,381,381,381,381,381,381,381,381,381,381,381,380,380,380,380,380,380,379,379,379,379,379,379,379,379,379,379,379,379,379,379,379,379,379,379,379,379,379,379,379,378,378,378,378,378,378,378,378,378,378,379,379,379,379,379,380,380,380,380,379,379,379,378,378,378,377,377,377,377,377,377,377,377,377,377,377,377,377,377,377,377,378,378,378,378,378,378,378,378,378,378,378,378,378,378,378,377,377,377,377,376,376,376,376,376,376,376,376,376,376,376,376,376,376,376,377,378,378,378,379,380,380,381,381,382,382,383,383,383,383,383,383,383,384,0,0,386,386,387,390,390,392,0,0,395,395,396,396,396,396,396,396,396,396,396,396,396,396,396,396,396,396,396,396,396,396,396,396,396,396,396,396,397,396,396,397,397,397,397,397,397,397,397,397,397,397,397,397,397,397,397,397,397,397,397,396,396,396,396,396,396,396,396,396,396,396,396,396,396,396,396,396,396,396,396,396,396,396,396,396,396,396,396,396,396,396,396,396,396,396,395,395,395,394,393,393,392,391,391,390,389,389,388,387,387,385,384,384,382,381,381,379,378,378,376,375,374,374,373,372,372,371,371,371,370,370,370,370,370,370,370,370,370,371,371,371,371,371,371,371,371,371,371,371,371,371,370,370
399,399,399,399,399,399,399,399,400,400,400,400,401,401,401,402,402,402,402,402,402,402,402,402,401,401,401,401,401,401,401,401,401,401,401,401,401,401,401,401,401,401,400,400,400,400,400,400,400,400,400,400,400,400,400,400,400,400,400,401,401,401,401,401,401,401,401,401,401,401,401,401,400,400,400,400,400,400,399,399,399,399,399,399,399,0,0,0,0,0,0,0,0,0,0,380,380,0,0,375,375,373,373,373,372,372,372,372,372,372,373,373,374,375,375,375,376,377,377,378,377,377,377,376,376,376,375,375,374,373,373,373,372,372,371,371,371,371,371,371,372,372,372,373,374,374,375,376,376,378,380,382,384,384,385,387,389,389,391,393,394,394,395,396,397,397,398,399,399,399,400,400,400,400,400,400,400,400,400,400,400,400,399,399,400,400,400,400,400,400,400,400,400,400,400,400,400,400,400,400,400,400,400,400,400,400,400,400,400,399,399,399,399,399,399,399,399,399,399,400,400,400,400,400,400,400,400,400,401,401,401,401,401,401,401,401,401,401,401,401,401,401,401,401,400,400,400,400,400,400,400,400,400,400,400,401,401,401,400,400,400,400,400,400,400,400,400,400,400,400,400,400,400,400,400,400,400,400,400,400,400,400,400,400,399,399,399,399,399,399,399,399,398,398,398,398,398,398,398,398,398,398,398,398,398,398,398,398,398,398,398,397,397,396,396,395,394,394,394,393,393,392,392,392,392,392,391,391,390,390,390,389,389,389,388,388,388,387,386,386,386,386,386,386,385,385,385,384,384,383,383,382,381,381,380,379,379,378,378,378,377,377,377,377,376,376,376,376,376,377,377,378,378,379,379,379,380,380,380,380,380,380,380,380,380,380,381,0,380,380,380,380,380,380,380,380,380,380,380,380,379,379,379,378,378,378,378,378,378,378,378,378,378,378,378,378,378,378,378,378,378,378,378,378,378,378,378,378,379,379,379,380,380,380,381,381,381,381,381,381,381,381,381,381,381,381,381,381,381,381,381,381,381,381,381,381,381,381,381,381,381,381,381,381,381,381,381,381,381,380,380,380,381,381,381,381,381,381,381,381,381,381,381,380,380,380,380,380,380,379,379,379,379,379,379,379,379,379,379,379,379,379,379,379,379,379,379,379,379,379,379,379,378,378,378,378,378,378,378,378,378,378,379,379,379,379,379,380,380,380,380,379,379,379,378,378,378,377,377,377,377,377,377,377,377,377,377,377,377,377,377,377,377,378,378,378,378,378,378,378,378,378,378,378,378,378,378,378,377,377,377,377,376,376,376,376,376,376,376,376,376,376,376,376,376,376,376,377,378,378,378,379,380,380,381,381,381,381,382,382,381,381,381,381,381,381,0,0,386,384,384,384,390,392,394,394,394,395,396,396,396,396,396,396,396,396,396,396,396,396,396,396,396,396,396,396,396,396,396,396,396,396,396,396,397,396,396,397,397,397,397,397,397,397,397,397,397,397,397,397,397,397,397,397,397,397,397,397,397,397,396,396,397,396,396,397,397,396,396,397,397,397,397,396,396,396,396,396,396,396,396,396,396,396,396,396,396,396,396,396,396,396,395,395,395,394,393,393,392,391,391,390,389,389,388,387,387,385,384,384,382,381,381,379,378,378,376,375,374,374,373,372,372,371,371,371,370,370,370,370,370,370,370,370,371,371,371,371,371,371,371,371,371,371,371,371,371,371,370,370
399,399,399,399,399,399,399,399,400,400,400,400,401,401,401,402,402,402,402,402,402,402,402,402,401,401,401,401,401,401,401,401,401,401,401,401,401,401,401,401,401,401,400,400,400,400,400,400,400,400,400,400,400,401,401,401,401,401,401,401,401,401,401,401,401,401,401,401,401,401,401,401,400,400,400,400,400,400,399,399,399,399,398,398,397,396,396,396,0,0,0,0,0,0,0,380,378,378,376,375,375,373,373,373,372,372,372,372,372,372,373,373,374,375,375,375,376,377,377,378,377,377,377,376,376,376,375,375,374,373,373,372,372,372,371,371,371,371,371,371,372,372,372,373,374,374,375,376,376,378,380,382,384,384,385,387,389,389,391,392,394,394,395,396,397,397,398,399,399,399,400,400,400,400,400,400,400,400,400,400,400,400,399,399,400,400,400,400,400,400,400,400,400,400,400,400,400,400,400,400,400,400,400,400,400,400,400,400,400,399,399,399,399,399,399,399,399,399,399,400,400,400,400,400,400,400,400,400,401,401,401,401,401,401,401,401,401,401,401,401,401,401,401,401,400,400,400,400,400,400,400,400,400,400,400,400,401,401,400,400,400,400,400,400,400,400,400,400,400,400,400,400,400,400,400,400,400,400,400,400,400,399,399,399,399,399,399,399,399,398,398,398,398,398,398,398,397,397,397,398,398,398,398,398,398,398,398,398,398,398,398,397,396,395,395,394,393,393,392,391,391,391,390,390,390,390,390,389,388,387,387,387,387,387,386,386,386,385,385,385,385,385,385,385,385,385,385,384,384,383,383,382,381,381,380,379,379,378,378,378,377,377,377,377,377,377,377,377,378,378,378,379,380,380,380,381,381,381,381,381,381,381,381,381,381,381,381,0,381,381,381,381,381,381,381,380,380,380,380,380,380,380,380,379,379,379,379,379,379,379,379,379,379,379,379,379,380,380,380,380,380,380,380,380,380,380,380,380,380,380,381,381,382,382,382,382,382,382,382,382,382,382,382,382,381,381,382,382,382,382,382,382,382,382,382,382,382,382,382,382,382,382,382,382,382,382,381,381,381,381,381,381,381,381,382,381,381,381,381,381,381,382,382,382,382,381,381,381,381,381,381,381,381,381,381,380,380,380,380,380,380,381,381,381,381,381,381,381,381,381,380,380,380,380,379,379,379,379,379,379,379,380,380,380,380,380,381,381,381,381,381,380,380,381,380,380,380,379,379,379,379,379,379,379,379,378,378,378,378,378,378,378,378,379,379,379,379,379,379,379,380,380,380,379,379,379,379,379,379,378,378,378,378,378,378,377,377,377,377,377,377,377,377,377,377,377,377,378,378,378,379,380,380,380,381,381,381,381,380,380,380,379,379,379,378,378,379,379,0,384,384,384,0,0,394,394,394,395,396,396,396,396,396,396,396,396,396,396,396,396,396,396,396,396,396,396,396,396,396,396,396,396,396,397,397,397,397,397,397,397,397,397,397,397,398,398,398,398,398,398,398,398,398,397,397,397,397,397,397,397,397,397,397,397,397,397,397,396,396,397,397,397,397,397,396,396,396,396,396,396,396,396,396,396,396,396,396,396,396,396,396,396,395,395,395,394,393,393,392,391,391,390,389,389,388,387,387,385,384,384,382,380,380,379,377,377,376,375,374,374,373,372,372,371,371,371,370,370,370,370,370,370,370,370,371,371,371,371,371,371,371,372,371,371,371,371,371,370,370,370
399,399,399,399,399,399,399,399,399,400,400,400,401,401,401,401,402,402,402,402,402,402,401,401,401,401,401,401,401,401,401,401,401,401,401,401,401,401,401,401,401,401,400,400,400,400,400,400,400,400,400,400,400,401,401,401,401,401,401,401,401,401,401,401,401,401,401,401,401,401,401,401,400,400,400,400,400,400,399,399,399,398,397,397,396,395,395,393,391,391,387,387,385,381,381,379,378,378,376,375,375,374,373,373,372,372,372,372,372,372,373,373,374,375,376,376,376,377,377,378,377,377,377,377,377,376,375,375,374,373,373,372,372,372,372,371,371,371,371,371,372,372,372,373,374,374,375,377,378,378,380,382,384,384,385,387,389,389,392,392,394,394,395,396,397,397,398,399,400,400,400,400,400,400,400,400,400,400,400,400,400,400,400,400,400,400,400,400,400,400,400,400,400,400,400,400,400,400,400,400,400,400,400,400,400,400,400,400,400,399,399,399,399,399,399,399,399,399,400,400,400,400,400,400,400,400,400,400,400,401,401,401,401,401,401,401,401,401,401,401,401,401,400,400,400,400,400,400,400,400,400,400,400,400,400,400,401,401,401,400,400,400,400,400,400,400,400,400,400,400,400,400,400,400,400,400,400,400,400,399,399,399,399,399,399,399,399,399,398,398,398,398,398,398,398,397,397,397,397,397,398,398,398,398,398,398,398,398,398,398,398,397,396,395,395,394,392,392,391,390,390,389,388,388,388,387,387,386,385,385,384,384,384,384,384,384,384,384,384,384,384,384,384,385,385,384,384,384,384,383,383,382,382,382,381,380,380,380,379,379,379,378,378,378,378,378,379,379,379,380,380,380,381,381,381,382,382,382,382,382,382,382,382,382,382,382,382,383,382,382,381,381,381,381,381,381,381,381,381,381,381,381,380,380,380,380,380,380,380,380,380,381,381,381,381,382,382,382,382,381,381,381,381,381,381,381,381,382,382,382,382,383,383,383,383,383,383,383,383,383,383,382,382,382,382,382,382,382,382,383,383,383,383,383,383,383,383,383,382,382,382,382,382,382,382,382,382,382,382,382,382,382,382,382,382,382,382,382,382,382,382,383,383,383,383,383,383,382,382,382,382,382,382,382,382,382,382,382,382,382,382,382,382,382,382,382,382,382,382,382,382,381,381,381,381,381,380,380,380,381,381,381,381,381,381,382,382,382,382,382,382,382,382,382,382,381,381,381,381,381,381,380,380,380,380,380,380,380,380,380,380,380,380,380,380,380,380,380,380,381,381,381,381,381,381,381,381,380,380,380,380,380,380,379,379,379,379,379,379,379,378,378,378,378,378,379,379,379,379,379,380,380,380,380,381,381,381,381,380,380,380,379,379,379,378,378,379,379,0,0,0,0,0,0,394,394,394,396,396,396,396,396,0,0,0,396,396,396,396,396,396,396,396,396,396,396,396,396,396,396,397,397,397,397,397,397,397,397,397,397,397,397,397,398,398,398,398,398,398,398,398,398,398,398,398,398,398,397,397,397,397,397,397,397,397,397,397,397,397,397,397,397,397,397,397,397,397,397,397,397,396,396,396,396,396,396,396,396,396,396,396,396,395,395,395,394,394,394,393,392,392,391,390,390,389,387,387,385,384,384,382,380,380,379,377,377,376,375,374,374,373,372,372,371,371,371,370,370,370,370,370,370,370,370,371,371,371,371,372,372,372,372,371,371,371,371,371,370,370,370
399,399,399,399,399,399,399,399,399,400,400,400,400,401,401,401,401,401,402,402,402,401,401,401,401,401,401,401,401,401,401,401,401,401,401,401,401,401,401,401,401,401,401,401,400,400,400,400,400,400,400,400,401,401,401,401,401,401,401,401,401,401,401,401,401,401,401,401,401,401,401,401,400,400,400,400,400,400,399,399,399,398,397,397,396,394,394,392,390,390,387,387,385,381,381,379,378,378,376,375,375,374,373,373,372,372,372,372,372,373,373,373,374,375,376,376,376,377,377,378,378,378,377,377,377,376,375,375,374,373,373,373,372,372,372,372,371,371,371,371,372,372,372,373,374,374,375,377,378,378,380,382,384,384,385,387,389,389,391,392,394,394,395,396,397,397,398,399,400,400,400,400,400,400,400,400,400,400,400,400,400,400,400,400,400,400,400,400,400,400,400,400,400,400,400,400,400,400,400,400,400,400,400,400,400,400,400,400,400,400,400,400,400,399,399,399,399,399,400,400,400,400,400,400,400,400,400,400,400,401,401,401,401,401,401,401,401,401,401,401,401,401,400,400,400,400,400,400,400,400,400,400,400,400,400,400,401,401,401,400,400,400,400,400,400,400,400,400,400,400,400,400,400,400,400,400,400,400,400,399,399,399,399,399,399,399,399,399,398,398,398,398,398,398,398,397,397,397,397,397,398,398,398,398,398,398,398,398,398,398,398,397,396,395,395,394,392,392,391,390,390,389,388,388,388,387,387,386,385,385,384,384,384,384,384,384,384,384,384,384,384,384,384,385,385,384,384,384,384,384,384,383,382,382,382,381,381,381,380,380,380,380,380,380,380,380,380,380,381,381,382,382,382,383,383,383,383,383,383,383,384,384,383,383,383,383,383,383,382,382,382,382,382,382,382,381,381,381,381,382,381,381,381,381,381,381,381,382,382,382,382,382,382,383,383,383,383,383,383,383,383,383,383,383,383,383,383,383,384,384,384,384,384,384,384,384,384,384,384,384,384,384,384,384,384,384,384,384,384,384,384,384,384,384,384,384,383,383,383,383,383,383,383,383,383,383,383,383,383,383,383,382,382,383,383,383,383,383,383,383,383,384,384,384,384,384,384,384,384,384,384,384,384,384,384,384,384,384,384,384,384,384,384,384,384,384,384,382,382,382,382,381,381,381,381,381,380,380,380,381,381,381,381,381,381,382,382,382,382,382,382,382,382,382,382,381,381,381,381,381,381,380,380,380,380,380,380,380,380,380,380,380,380,380,380,380,380,380,380,381,381,381,381,381,381,381,381,380,380,380,380,380,380,379,379,379,379,379,379,379,378,378,378,378,378,379,379,379,379,379,380,380,380,380,381,380,380,380,379,379,378,378,378,377,376,376,376,376,376,0,376,376,0,0,394,394,394,396,396,396,396,396,0,0,0,396,396,396,396,396,396,396,396,396,396,396,396,396,396,396,397,397,397,397,397,397,397,397,397,397,397,397,397,398,398,398,398,398,398,398,398,398,398,398,398,398,398,397,397,397,397,397,397,397,397,397,397,397,397,397,397,397,397,397,397,397,397,397,397,397,396,396,396,396,396,396,396,396,396,396,396,396,395,395,395,394,394,394,393,392,392,391,390,390,389,387,387,385,384,384,382,380,380,379,377,377,376,375,374,374,373,372,372,371,371,371,370,370,370,370,370,370,370,370,371,371,371,371,372,372,372,372,371,371,371,371,371,370,370,370
399,399,399,399,399,399,399,399,399,400,400,400,400,401,401,401,401,401,402,402,402,401,401,401,401,401,401,401,401,401,401,401,401,401,401,401,401,401,401,401,401,401,401,401,401,401,401,401,401,400,400,400,401,401,401,401,401,401,401,401,401,401,401,401,401,401,401,401,401,401,401,401,400,400,400,400,400,400,399,399,399,398,397,397,396,394,394,392,390,390,387,387,0,381,381,380,378,378,376,375,375,374,373,373,372,372,372,372,372,373,373,373,374,375,376,376,376,377,377,378,378,378,378,377,377,376,375,375,374,373,373,373,372,372,372,372,371,371,371,372,372,372,372,373,374,374,375,377,378,378,380,382,384,384,385,387,389,389,391,392,394,394,395,396,397,397,398,399,400,400,400,400,400,400,400,401,400,400,400,400,400,400,400,400,400,400,400,400,400,400,400,400,400,400,400,400,400,400,400,400,400,400,400,400,400,400,400,400,400,400,400,400,400,399,399,399,399,399,400,400,400,400,400,400,400,400,400,400,400,401,401,401,401,401,401,401,401,401,401,401,401,400,400,400,400,400,400,400,400,400,400,400,400,400,400,400,401,401,401,400,400,400,400,400,400,400,400,400,400,400,400,400,400,400,400,400,400,400,400,399,399,399,399,399,399,399,399,399,398,398,398,398,398,398,398,397,397,397,397,397,398,398,398,398,398,398,398,398,398,398,398,397,396,395,394,394,392,392,391,390,390,387,386,386,385,384,384,383,383,385,384,381,381,381,381,382,382,382,383,383,383,384,384,384,384,384,384,384,384,384,384,383,382,382,382,381,381,381,380,380,380,380,380,380,380,380,380,380,381,381,382,382,382,383,383,383,383,383,383,383,384,384,383,383,383,383,383,383,382,382,382,382,382,382,382,381,381,381,381,382,381,381,381,381,381,381,381,382,382,382,382,382,382,383,383,383,383,383,383,383,383,383,383,383,383,383,383,383,384,384,384,384,384,384,384,384,384,384,384,384,384,384,384,384,384,384,384,384,384,384,384,384,384,384,384,384,383,383,383,383,383,383,383,383,383,383,383,383,383,383,383,382,382,383,383,383,383,383,383,383,383,384,384,384,384,384,384,384,384,384,384,384,384,384,384,384,384,384,384,384,384,384,384,384,384,384,384,384,383,383,383,383,383,382,382,382,382,381,381,382,382,382,382,382,382,383,383,383,383,384,384,384,383,383,383,383,383,382,382,382,382,382,382,382,382,381,381,381,381,381,381,381,381,381,381,381,381,382,382,382,382,382,382,382,382,382,382,382,382,382,381,381,381,381,381,381,381,380,380,380,380,380,380,380,380,380,380,380,381,381,381,381,381,381,381,380,380,380,379,379,377,376,376,375,374,374,374,374,374,373,373,376,0,0,0,0,396,396,396,396,396,0,0,0,0,396,396,396,396,396,396,396,396,396,396,396,396,397,397,397,397,397,397,397,397,397,397,397,397,397,397,398,398,398,398,398,398,398,398,398,398,398,398,398,398,398,398,397,397,397,397,397,397,397,397,397,397,397,397,397,397,397,397,397,397,397,397,397,397,397,397,397,396,396,396,396,396,396,396,396,396,396,396,395,395,394,394,394,393,392,392,391,390,390,389,387,387,386,384,384,381,380,380,378,377,377,375,374,374,373,373,372,372,371,371,371,370,370,370,370,370,370,371,371,371,371,372,372,372,372,372,372,372,372,372,371,371,371,370,370
