330.92,331.33,331.33,331.33,327.25,327.25,327.25,327.25,324.39,324.39,324.39,324.39,324.39,324.39,324.39,324.39,324.39,327.25,327.25,327.25,327.25,327.25,327.25,327.25,327.25,327.25,327.25,327.25,327.25,327.25,324.39,324.39,324.39,324.39,324.39,324.39,324.39,324.39,324.39,324.39,327.25,327.25,327.25,327.25,327.25,327.25,327.25,327.25,327.25,327.25,327.25,327.25,327.25,324.39,324.39,324.39,324.39,324.39,324.39,324.39,324.39,324.39,324.39,324.39,324.39,324.39,324.39,324.39,324.39,324.39,324.39,324.39,324.39,324.39,324.39,324.39,324.39,324.39,324.39,324.39,324.39,324.39,324.39,324.39,324.39,324.39,324.39,324.39,324.39,324.39,324.39,324.39,324.39,327.25,324.39,324.39,324.39,324.39,324.39,324.39,324.39,324.39,324.39,324.39,324.39,324.39,324.39,324.39,324.39,324.39,324.39,324.39,324.39,324.39,324.39,324.39,320.72,320.72,320.72,320.72,320.72,320.72,320.72,320.72,320.72,320.72,320.72,320.72,320.72,320.72,320.72,320.72,320.72,320.72,320.72,320.72,320.72,320.72,320.72,320.72,320.72,320.72,320.72,320.72,320.72,320.72,320.72,320.72,320.72,320.72,320.72,320.72,324.39,324.39,324.39,324.39,324.39,324.39,324.39,324.39,324.39,324.39,327.25,327.25,327.25,327.25,327.25,327.25,324.39,324.39,324.39,324.39,324.39,324.39,324.39,324.39,324.39,324.39,324.39,324.39,327.25,327.25,327.25,327.25,327.25,327.25,331.33,331.33,331.33,331.33,331.33,331.33,327.25,327.25,327.25,327.25,327.25,324.39,324.39,324.39,324.39,324.39,324.39,324.39,324.39,324.39,324.39,324.39,324.39,324.39,324.39,324.39,324.39,324.39,324.39,324.39,327.25,327.25,327.25,327.25,327.25,327.25,327.25,327.25,324.39,324.39,327.25,324.39,324.39,324.39,324.39,324.39,324.39,324.39,324.39,324.39,324.39,324.39,324.39,324.39,324.39,324.39,324.39,324.39,324.39,324.39,324.39,324.39,324.39,324.39,324.39,324.39,324.39,324.39,324.39,324.39,324.39,324.39,324.39,320.72,320.72,320.72,320.72,320.72,317.87,317.87,317.87,317.87,317.87,317.87,317.87,317.87,317.87,315.42,315.42,315.42,315.42,315.42,317.87,317.87,317.87,320.72,324.39,350.49,365.58,365.58,359.06,359.06,339.07,328.88,326.43,326.43,323.58,323.58,323.58,323.58,323.58,323.58,323.58,323.58,323.58,323.58,323.58,323.58,323.58,323.58,323.58,323.58,323.58,323.58,323.58,323.58,323.58,323.58,323.58,323.58,323.58,323.58,323.58,323.58,323.58,323.58,323.58,323.58,323.58,323.58,323.58,323.58,323.58,323.58,323.58,323.58,323.58,323.58,323.58,323.58,323.58,323.58,326.43,326.43,326.43,326.43,326.43,326.43,323.58,323.58,323.58,323.58,326.43,326.43,326.43,326.43,326.43,328.88,328.88,331.33,333.77,333.77,339.07,349.27,359.06,359.06,366.81,373.33,373.33,381.90,391.69,391.69,385.57,379.86,379.86,377.00,369.66,369.66,362.73,354.16,354.16,346.42,341.52,341.52,334.18,331.33,331.33,327.25,324.39,320.72,320.72,317.87,315.42,315.42,315.01,315.01,315.01,314.60,314.60,314.60,314.60,314.60,314.60,314.60,314.60,314.60,314.60,314.60,314.60,315.01,314.60,314.60,315.01,315.42,315.42,314.60,314.20,314.20,314.20,314.20,314.20,314.20,314.20,313.79,313.79,313.79,313.79,313.79,313.79,313.79
331.33,330.51,330.51,329.69,327.25,327.25,327.25,327.25,324.39,324.39,324.39,324.39,324.39,324.39,324.39,324.39,324.39,327.25,327.25,327.25,327.25,327.25,327.25,327.25,327.25,327.25,327.25,327.25,327.25,324.39,324.39,324.39,324.39,324.39,324.39,324.39,324.39,324.39,324.39,324.39,324.39,324.39,324.39,324.39,324.39,327.25,327.25,324.39,324.39,324.39,324.39,324.39,324.39,320.72,320.72,320.72,320.72,320.72,320.72,320.72,320.72,320.72,320.72,320.72,320.72,320.72,320.72,324.39,324.39,324.39,324.39,320.72,320.72,320.72,320.72,320.72,320.72,320.72,320.72,320.72,320.72,320.72,320.72,320.72,320.72,320.72,320.72,320.72,320.72,320.72,320.72,320.72,320.72,320.72,320.72,320.72,320.72,320.72,320.72,320.72,320.72,320.72,320.72,320.72,324.39,324.39,324.39,324.39,320.72,320.72,320.72,320.72,320.72,320.72,320.72,320.72,320.72,320.72,320.72,320.72,320.72,320.72,320.72,320.72,320.72,320.72,320.72,317.87,317.87,317.87,320.72,320.72,320.72,320.72,317.87,317.87,317.87,317.87,317.87,317.87,317.87,317.87,317.87,317.87,317.87,317.87,317.87,320.72,320.72,320.72,320.72,320.72,320.72,320.72,320.72,324.39,324.39,324.39,324.39,324.39,324.39,324.39,324.39,324.39,324.39,324.39,324.39,324.39,324.39,324.39,324.39,320.72,320.72,320.72,320.72,320.72,324.39,324.39,324.39,324.39,324.39,324.39,324.39,324.39,324.39,324.39,324.39,324.39,324.39,324.39,324.39,324.39,324.39,324.39,324.39,324.39,324.39,324.39,324.39,324.39,320.72,320.72,320.72,320.72,320.72,320.72,320.72,320.72,320.72,320.72,320.72,324.39,324.39,324.39,324.39,324.39,327.25,327.25,324.39,324.39,324.39,324.39,324.39,324.39,324.39,324.39,324.39,320.72,320.72,324.39,324.39,324.39,324.39,324.39,324.39,324.39,324.39,324.39,324.39,320.72,320.72,320.72,320.72,320.72,324.39,320.72,320.72,324.39,324.39,324.39,320.72,320.72,320.72,320.72,320.72,320.72,320.72,320.72,320.72,320.72,317.87,317.87,317.87,317.87,317.87,317.87,317.87,317.87,317.87,317.87,315.42,315.42,315.42,315.42,315.42,315.42,315.42,315.42,315.42,317.87,317.87,317.87,317.87,317.87,331.33,365.58,359.06,359.06,339.07,328.88,326.43,326.43,323.58,323.58,323.58,323.58,323.58,323.58,323.58,323.58,323.58,323.58,323.58,323.58,323.58,323.58,323.58,323.58,323.58,323.58,323.58,323.58,323.58,323.58,323.58,323.58,323.58,323.58,323.58,323.58,323.58,323.58,323.58,323.58,323.58,323.58,323.58,323.58,323.58,323.58,323.58,323.58,323.58,323.58,323.58,323.58,323.58,323.58,326.43,326.43,326.43,326.43,326.43,326.43,323.58,323.58,323.58,323.58,326.43,326.43,326.43,326.43,326.43,328.88,328.88,331.33,333.77,333.77,339.07,339.07,359.06,359.06,366.81,373.33,373.33,381.90,391.69,391.69,385.57,379.86,379.86,377.00,369.66,369.66,362.73,354.16,354.16,346.42,341.52,341.52,334.18,331.33,331.33,327.25,324.39,320.72,320.72,317.87,315.42,315.42,315.42,315.01,315.01,315.01,315.01,315.01,315.01,315.01,315.01,315.42,315.42,315.42,315.42,315.42,315.42,316.64,317.46,317.46,316.24,315.42,315.42,315.01,315.01,315.01,315.01,315.01,314.60,314.60,314.60,314.60,314.60,314.20,314.20,314.20,314.20,314.20
332.14,330.51,330.51,328.88,327.25,327.25,327.25,327.25,324.39,324.39,324.39,324.39,320.72,320.72,324.39,324.39,324.39,324.39,324.39,324.39,324.39,324.39,324.39,327.25,327.25,327.25,327.25,324.39,324.39,324.39,324.39,324.39,324.39,324.39,324.39,324.39,324.39,324.39,324.39,324.39,324.39,324.39,324.39,324.39,324.39,327.25,327.25,324.39,324.39,324.39,324.39,324.39,324.39,320.72,320.72,320.72,320.72,320.72,320.72,320.72,320.72,320.72,320.72,320.72,320.72,320.72,320.72,324.39,324.39,324.39,324.39,320.72,320.72,320.72,320.72,320.72,320.72,320.72,320.72,320.72,320.72,320.72,320.72,320.72,320.72,320.72,320.72,320.72,320.72,320.72,320.72,320.72,320.72,320.72,320.72,320.72,320.72,320.72,320.72,320.72,320.72,320.72,320.72,320.72,324.39,324.39,324.39,324.39,320.72,320.72,320.72,320.72,320.72,320.72,320.72,320.72,320.72,320.72,320.72,320.72,320.72,320.72,320.72,320.72,320.72,320.72,320.72,317.87,317.87,317.87,320.72,320.72,320.72,320.72,317.87,317.87,317.87,317.87,317.87,317.87,317.87,317.87,317.87,317.87,317.87,317.87,317.87,320.72,320.72,320.72,320.72,320.72,320.72,320.72,320.72,324.39,324.39,324.39,324.39,320.72,320.72,320.72,320.72,320.72,320.72,320.72,320.72,320.72,320.72,320.72,320.72,320.72,320.72,320.72,320.72,320.72,320.72,320.72,320.72,320.72,320.72,320.72,320.72,320.72,320.72,320.72,320.72,320.72,320.72,320.72,320.72,320.72,320.72,320.72,320.72,320.72,320.72,320.72,320.72,320.72,320.72,320.72,320.72,320.72,320.72,320.72,320.72,320.72,320.72,320.72,320.72,320.72,320.72,320.72,320.72,324.39,324.39,324.80,320.72,320.72,320.72,320.72,320.72,320.72,320.72,320.72,320.72,320.72,320.72,320.72,320.72,320.72,320.72,320.72,320.72,320.72,320.72,320.72,320.72,320.72,320.72,320.72,320.72,320.72,320.72,320.72,320.72,320.72,320.72,320.72,320.72,320.72,320.72,320.72,320.72,320.72,320.72,320.72,320.72,317.87,317.87,317.87,317.87,317.87,317.87,317.87,317.87,317.87,317.87,317.87,315.42,315.42,315.42,315.42,315.42,315.42,315.42,315.42,315.42,317.87,317.87,317.87,317.87,317.87,331.33,349.27,339.07,339.07,333.77,328.88,323.58,323.58,323.58,323.58,323.58,326.43,326.43,326.43,323.58,323.58,323.58,323.58,323.58,323.58,323.58,323.58,323.58,323.58,323.58,323.58,323.58,323.58,323.58,323.58,326.43,326.43,326.43,323.58,323.58,323.58,323.58,323.58,323.58,323.58,323.58,323.58,323.58,323.58,323.58,323.58,323.58,323.58,323.58,323.58,323.58,323.58,323.58,323.58,326.43,326.43,326.43,326.43,323.58,323.58,323.58,323.58,323.58,323.58,326.43,326.43,326.43,326.43,326.43,328.88,328.88,331.33,333.77,333.77,339.07,339.07,359.06,359.06,366.81,373.33,373.33,381.90,391.69,391.69,385.57,379.86,379.86,372.52,369.66,369.66,362.73,354.16,354.16,346.42,337.85,337.85,334.18,331.33,331.33,327.25,324.39,320.72,320.72,317.87,315.42,315.42,315.42,315.01,315.01,315.01,315.01,315.01,315.01,315.01,315.01,315.42,315.42,315.42,315.42,315.42,315.42,319.50,321.95,322.35,319.09,315.42,315.42,315.01,315.01,315.01,315.01,315.01,314.60,314.60,314.60,314.60,314.60,314.20,314.20,314.20,314.20,314.20
332.96,330.51,331.33,331.33,327.25,327.25,327.65,326.43,325.21,324.39,324.39,320.72,320.72,320.72,320.72,320.72,320.72,324.39,324.39,324.39,324.39,324.39,324.39,324.39,324.39,324.39,324.39,324.39,324.39,320.72,320.72,320.72,320.72,320.72,320.72,320.72,320.72,320.72,320.72,320.72,320.72,320.72,320.72,324.39,324.39,324.39,324.39,324.39,324.39,320.72,320.72,320.72,320.72,320.72,317.87,317.87,317.87,317.87,317.87,317.87,317.87,317.87,317.87,317.87,320.72,320.72,320.72,320.72,320.72,320.72,320.72,320.72,320.72,320.72,320.72,320.72,320.72,317.87,317.87,317.87,317.87,317.87,317.87,317.87,317.87,317.87,317.87,317.87,317.87,320.72,320.72,320.72,320.72,320.72,320.72,320.72,320.72,320.72,320.72,320.72,320.72,320.72,320.72,320.72,320.72,320.72,320.72,320.72,320.72,320.72,320.72,320.72,320.72,320.72,320.72,317.87,317.87,317.87,317.87,317.87,317.87,317.87,317.87,317.87,317.87,317.87,317.87,317.87,317.87,317.87,317.87,317.87,317.87,317.87,317.87,317.87,317.87,317.87,317.87,317.87,317.87,317.87,317.87,317.87,317.87,317.87,317.87,317.87,317.87,320.72,320.72,320.72,320.72,320.72,320.72,320.72,320.72,320.72,320.72,320.72,320.72,320.72,320.72,320.72,320.72,320.72,320.72,320.72,320.72,320.72,320.72,320.72,320.72,320.72,320.72,320.72,320.72,320.72,320.72,320.72,320.72,320.72,320.72,320.72,320.72,320.72,320.72,320.72,320.72,320.72,320.72,320.72,320.72,320.72,320.72,320.72,320.72,320.72,320.72,320.72,320.72,320.72,320.72,320.72,320.72,320.72,320.72,320.72,320.72,320.72,320.72,320.72,320.72,320.72,320.72,321.95,322.35,321.95,320.72,320.72,320.72,320.72,320.72,320.72,320.72,320.72,320.72,320.72,320.72,320.72,320.72,320.72,320.72,320.72,320.72,320.72,320.72,320.72,320.72,320.72,320.72,320.72,320.72,320.72,320.72,320.72,320.72,320.72,320.72,320.72,320.72,320.72,320.72,320.72,320.72,320.72,320.72,320.72,320.72,317.87,317.87,317.87,317.87,317.87,317.87,317.87,317.87,317.87,317.87,317.87,315.42,315.42,315.42,315.42,315.42,315.42,315.42,315.42,315.42,317.87,317.87,317.87,317.87,317.87,339.07,339.07,333.77,331.33,331.33,326.43,326.43,326.43,326.43,326.43,326.43,326.43,326.43,326.43,326.43,326.43,326.43,326.43,326.43,326.43,323.58,323.58,323.58,323.58,323.58,323.58,326.43,326.43,326.43,326.43,326.43,326.43,326.43,326.43,326.43,323.58,323.58,323.58,323.58,323.58,323.58,323.58,323.58,323.58,323.58,323.58,323.58,323.58,323.58,323.58,323.58,323.58,323.58,323.58,323.58,323.58,323.58,323.58,323.58,323.58,323.58,323.58,323.58,323.58,323.58,326.43,326.43,326.43,326.43,326.43,326.43,328.88,331.33,331.33,333.77,339.07,349.27,349.27,359.06,366.81,366.81,381.90,391.69,391.69,385.57,379.86,379.86,372.52,369.66,369.66,362.73,354.16,354.16,346.42,337.85,337.85,334.18,331.33,331.33,327.25,324.39,320.72,320.72,317.87,317.87,317.87,315.42,315.42,315.42,315.42,315.42,315.42,315.42,315.42,317.87,317.87,317.87,317.87,320.72,320.72,320.72,327.25,331.33,331.33,327.25,317.87,317.87,317.87,317.87,315.42,315.42,315.42,315.01,315.01,315.01,315.01,315.01,315.01,315.01,315.01,315.01,315.01
335.40,331.33,331.33,331.33,327.25,327.25,326.43,323.98,323.58,323.17,321.95,320.72,320.72,320.72,320.72,320.72,320.72,320.72,320.72,320.72,324.39,324.39,324.39,324.39,324.39,324.39,320.72,320.72,320.72,320.72,320.72,320.72,320.72,320.72,320.72,320.72,320.72,320.72,320.72,320.72,320.72,320.72,320.72,324.39,324.39,324.39,324.39,320.72,320.72,320.72,320.72,320.72,317.87,317.87,317.87,317.87,317.87,317.87,317.87,317.87,317.87,317.87,317.87,317.87,317.87,317.87,317.87,317.87,320.72,320.72,317.87,317.87,317.87,317.87,317.87,317.87,317.87,317.87,317.87,317.87,317.87,317.87,317.87,317.87,317.87,317.87,317.87,317.87,317.87,317.87,317.87,317.87,317.87,317.87,317.87,317.87,317.87,317.87,317.87,317.87,317.87,317.87,317.87,317.87,317.87,317.87,317.87,317.87,317.87,317.87,317.87,317.87,317.87,317.87,317.87,317.87,317.87,317.87,317.87,317.87,317.87,317.87,315.42,315.42,317.87,317.87,317.87,317.87,317.87,317.87,317.87,317.87,317.87,317.87,317.87,317.87,317.87,317.87,317.87,317.87,317.87,317.87,317.87,317.87,317.87,317.87,317.87,317.87,317.87,317.87,317.87,317.87,317.87,317.87,317.87,317.87,317.87,317.87,317.87,320.72,317.87,317.87,317.87,317.87,317.87,317.87,320.72,317.87,317.87,317.87,317.87,317.87,317.87,317.87,317.87,317.87,317.87,317.87,317.87,317.87,317.87,317.87,317.87,317.87,317.87,317.87,317.87,317.87,317.87,317.87,317.87,317.87,317.87,317.87,317.87,317.87,317.87,317.87,317.87,317.87,317.87,317.87,317.87,317.87,317.87,317.87,317.87,317.87,317.87,317.87,317.87,317.87,317.87,317.87,320.72,320.72,320.72,320.31,320.72,320.72,317.87,317.87,317.87,317.87,317.87,317.87,317.87,317.87,317.87,317.87,317.87,317.87,317.87,317.87,317.87,317.87,317.87,317.87,317.87,317.87,317.87,317.87,317.87,317.87,317.87,317.87,320.72,320.72,320.72,320.72,320.72,320.72,320.72,320.72,320.72,320.72,320.72,317.87,317.87,317.87,317.87,317.87,317.87,317.87,317.87,317.87,317.87,317.87,317.87,317.87,315.42,315.42,315.42,315.42,315.42,315.42,315.42,315.42,315.42,315.42,315.42,317.87,317.87,317.87,317.87,339.07,328.88,328.88,328.88,326.43,326.43,326.43,326.43,326.43,326.43,326.43,326.43,326.43,326.43,326.43,326.43,326.43,326.43,326.43,323.58,323.58,323.58,323.58,323.58,323.58,326.43,326.43,326.43,326.43,326.43,326.43,326.43,326.43,326.43,323.58,323.58,323.58,323.58,323.58,323.58,323.58,323.58,323.58,323.58,323.58,323.58,323.58,323.58,323.58,323.58,323.58,323.58,323.58,323.58,323.58,323.58,323.58,323.58,323.58,323.58,323.58,323.58,323.58,323.58,323.58,326.43,326.43,326.43,326.43,326.43,328.88,331.33,331.33,333.77,339.07,349.27,349.27,359.06,366.81,366.81,381.90,391.69,391.69,385.57,379.86,379.86,372.52,369.66,369.66,362.73,354.16,354.16,346.42,341.52,341.52,334.18,331.33,331.33,327.25,324.39,320.72,320.72,320.72,317.87,317.87,317.87,317.87,317.87,317.87,317.87,317.87,317.87,317.87,320.72,320.72,324.39,324.39,324.39,327.25,327.25,327.25,331.33,331.33,327.25,324.39,324.39,324.39,320.72,317.87,317.87,317.87,317.87,317.87,315.42,315.42,315.42,315.42,315.42,315.42,315.42,315.42
339.48,331.73,331.33,331.33,327.25,327.25,324.80,323.17,321.13,321.13,320.72,320.72,320.72,320.72,320.72,320.72,320.72,320.72,320.72,320.72,324.39,324.39,324.39,324.39,324.39,324.39,320.72,320.72,320.72,320.72,320.72,320.72,320.72,320.72,320.72,320.72,320.72,320.72,320.72,320.72,320.72,320.72,320.72,321.95,323.58,324.39,323.17,320.72,320.72,320.72,320.72,320.72,317.87,317.87,317.87,317.87,317.87,317.87,317.87,317.87,317.87,317.87,317.87,317.87,317.87,317.87,317.87,317.87,320.72,320.72,317.87,317.87,317.87,317.87,317.87,317.87,317.87,317.87,317.87,317.87,317.87,317.87,317.87,317.87,317.87,317.87,317.87,317.87,317.87,317.87,317.87,317.87,317.87,317.87,317.87,317.87,317.87,317.87,317.87,317.87,317.87,317.87,317.87,317.87,317.87,317.87,317.87,317.87,317.87,317.87,317.87,317.87,317.87,317.87,317.87,317.87,315.42,315.42,315.42,315.42,315.42,315.42,315.42,315.42,315.42,315.42,315.42,315.42,315.42,315.42,315.42,317.87,317.87,317.87,317.87,317.87,317.87,317.87,317.87,317.87,317.87,317.87,317.87,317.87,317.87,317.87,317.87,317.87,317.87,317.87,317.87,317.87,317.87,317.87,317.87,317.87,317.87,317.87,317.87,317.87,317.87,317.87,317.87,317.87,317.87,317.87,317.87,317.87,317.87,317.87,317.87,317.87,317.87,317.87,317.87,317.87,317.87,317.87,317.87,317.87,317.87,317.87,317.87,317.87,317.87,317.87,317.87,317.87,317.87,317.87,317.87,317.87,317.87,315.42,315.42,315.42,315.42,315.42,315.42,315.42,315.42,315.42,315.42,315.42,317.87,317.87,317.87,317.87,317.87,317.87,317.87,317.87,317.87,317.87,317.87,317.87,319.50,319.09,317.87,317.87,317.87,317.87,317.87,317.87,317.87,317.87,317.87,317.87,317.87,317.87,317.87,317.87,317.87,317.87,317.87,317.87,317.87,317.87,317.87,317.87,317.87,317.87,317.87,317.87,317.87,317.87,317.87,317.87,317.87,317.87,320.72,320.72,320.72,317.87,317.87,317.87,317.87,317.87,317.87,317.87,317.87,317.87,317.87,317.87,317.87,317.87,317.87,317.87,317.87,317.87,317.87,315.42,315.42,315.42,315.42,315.42,315.42,315.42,315.42,315.42,315.42,315.42,317.87,317.87,317.87,333.77,328.88,328.88,328.88,326.43,326.43,326.43,326.43,326.43,326.43,328.88,328.88,328.88,328.88,326.43,326.43,326.43,326.43,326.43,326.43,326.43,326.43,326.43,326.43,326.43,326.43,326.43,326.43,326.43,326.43,326.43,326.43,326.43,326.43,326.43,326.43,323.58,323.58,323.58,323.58,323.58,323.58,323.58,323.58,323.58,323.58,323.58,323.58,323.58,323.58,323.58,323.58,323.58,323.58,323.58,323.58,323.58,323.58,323.58,323.58,323.58,323.58,323.58,323.58,323.58,326.43,326.43,326.43,326.43,326.43,328.88,331.33,331.33,333.77,339.07,349.27,349.27,359.06,366.81,366.81,381.90,391.69,391.69,385.57,377.00,377.00,372.52,365.58,365.58,362.73,354.16,354.16,346.42,341.52,341.52,334.18,331.33,331.33,327.25,324.39,320.72,320.72,320.72,317.87,317.87,317.87,317.87,317.87,317.87,317.87,317.87,317.87,317.87,320.72,320.72,324.39,324.39,324.39,327.25,327.25,327.25,331.33,331.33,327.25,324.39,324.39,324.39,320.72,320.72,324.39,320.72,320.72,317.87,317.87,317.87,317.87,317.87,317.87,317.87,317.87,317.87
346.42,334.18,327.25,327.25,327.25,320.72,320.72,320.72,317.87,317.87,317.87,317.87,317.87,317.87,317.87,320.72,320.72,320.72,320.72,320.72,320.72,320.72,320.72,320.72,320.72,320.72,320.72,320.72,320.72,320.72,320.72,320.72,320.72,317.87,317.87,317.87,317.87,317.87,317.87,317.87,317.87,320.72,320.72,321.54,322.35,322.76,321.95,320.72,320.72,317.87,317.87,317.87,317.87,317.87,317.87,317.87,317.87,315.42,315.42,315.42,315.42,317.87,317.87,317.87,317.87,317.87,317.87,317.87,317.87,317.87,317.87,317.87,317.87,317.87,317.87,317.87,317.87,317.87,317.87,317.87,317.87,317.87,317.87,317.87,317.87,317.87,317.87,317.87,317.87,317.87,317.87,317.87,317.87,317.87,317.87,317.87,317.87,317.87,317.87,317.87,317.87,317.87,317.87,317.87,317.87,317.87,317.87,317.87,317.87,317.87,317.87,317.87,317.87,317.87,317.87,317.87,315.42,315.42,315.42,315.42,315.42,315.42,315.42,315.42,315.42,315.42,315.42,315.42,315.42,315.42,315.42,317.87,317.87,317.87,317.87,317.87,317.87,317.87,317.87,317.87,317.87,317.87,317.87,317.87,317.87,317.87,317.87,317.87,317.87,317.87,317.87,317.87,317.87,317.87,317.87,317.87,317.87,317.87,317.87,317.87,317.87,317.87,317.87,317.87,317.87,317.87,317.87,317.87,317.87,317.87,317.87,317.87,317.87,317.87,317.87,317.87,317.87,317.87,317.87,317.87,317.87,317.87,317.87,317.87,317.87,317.87,317.87,317.87,317.87,317.87,317.87,317.87,317.87,315.42,315.42,315.42,315.42,315.42,315.42,315.42,315.42,315.42,315.42,315.42,316.24,317.05,317.05,317.46,317.46,317.87,317.87,317.87,317.87,317.87,317.87,317.87,318.68,319.09,317.87,317.87,317.87,317.87,317.87,317.87,317.87,317.87,317.87,317.87,317.87,317.87,317.87,317.87,317.87,317.87,317.87,317.87,317.87,317.87,317.87,317.87,317.87,317.87,317.87,317.87,317.87,317.87,317.87,317.87,317.87,317.87,317.87,317.87,317.87,317.87,317.87,317.87,317.87,317.87,317.87,317.87,317.87,317.87,317.87,317.87,317.87,317.87,317.87,317.87,317.87,317.87,317.87,317.87,317.87,315.42,315.42,315.42,315.42,315.42,315.42,315.42,315.42,315.42,317.87,317.87,317.87,328.88,326.43,326.43,326.43,326.43,326.43,326.43,328.88,328.88,328.88,328.88,328.88,328.88,328.88,328.88,328.88,328.88,328.88,326.43,326.43,326.43,326.43,326.43,326.43,326.43,326.43,326.43,326.43,326.43,326.43,326.43,326.43,326.43,326.43,326.43,326.43,323.58,323.58,323.58,323.58,323.58,323.58,323.58,323.58,323.58,323.58,323.58,323.58,323.58,323.58,323.58,323.58,323.58,323.58,323.58,323.58,323.58,323.58,323.58,323.58,323.58,323.58,323.58,323.58,323.58,326.43,326.43,326.43,326.43,326.43,328.88,331.33,331.33,333.77,339.07,349.27,349.27,359.06,366.81,366.81,381.90,391.69,391.69,385.57,377.00,377.00,372.52,365.58,365.58,362.73,354.16,354.16,346.42,341.52,341.52,334.18,331.33,331.33,327.25,324.39,324.39,324.39,320.72,320.72,320.72,317.87,317.87,317.87,317.87,317.87,320.72,320.72,320.72,324.39,324.39,327.25,327.25,331.33,331.33,334.18,334.18,334.18,334.18,334.18,331.33,327.25,327.25,324.39,324.39,324.39,320.72,320.72,317.87,317.87,317.87,317.87,317.87,317.87,317.87,317.87,317.87
346.42,334.18,327.25,327.25,324.39,320.72,320.72,317.87,317.87,315.42,315.42,315.42,317.87,317.87,317.87,317.87,317.87,320.72,320.72,320.72,320.72,320.72,320.72,320.72,320.72,320.72,320.72,320.72,320.72,320.72,320.72,320.72,317.87,317.87,317.87,317.87,317.87,317.87,317.87,317.87,317.87,319.09,320.72,320.31,320.31,320.31,320.72,321.54,319.91,317.87,317.87,317.87,317.87,317.87,317.87,317.87,315.42,315.42,315.42,315.42,315.42,315.42,315.42,315.42,315.42,317.87,317.87,317.87,317.87,317.87,317.87,317.87,317.87,317.87,317.87,317.87,317.87,317.87,317.87,317.87,317.87,317.87,317.87,317.87,317.87,317.87,317.87,317.87,317.87,317.87,317.87,317.87,317.87,317.87,317.87,317.87,317.87,317.87,317.87,317.87,317.87,317.87,317.87,317.87,317.87,317.87,317.87,317.87,317.87,317.87,317.87,317.87,317.87,315.42,315.42,315.42,315.42,315.42,315.42,315.42,315.42,315.42,315.42,315.42,315.42,315.42,315.42,315.42,315.42,315.42,315.42,315.42,315.42,317.87,317.87,317.87,317.87,317.87,317.87,317.87,317.87,317.87,317.87,317.87,317.87,317.87,317.87,317.87,317.87,317.87,317.87,317.87,317.87,317.87,317.87,317.87,317.87,317.87,317.87,317.87,317.87,317.87,317.87,317.87,317.87,317.87,317.87,317.87,317.87,317.87,317.87,317.87,317.87,317.87,317.87,317.87,317.87,317.87,317.87,317.87,317.87,317.87,317.87,317.87,317.87,317.87,317.87,317.87,317.87,317.87,317.87,317.87,317.87,315.42,315.42,315.42,315.42,315.42,315.42,315.42,315.42,315.42,315.42,315.42,315.42,315.42,315.42,317.87,317.87,317.87,317.87,317.87,317.87,317.87,317.87,317.87,317.87,317.87,317.87,317.87,317.87,317.87,317.87,317.87,317.87,317.87,317.87,317.87,317.87,317.87,317.87,317.87,317.87,317.87,317.87,317.87,317.87,317.87,317.87,317.87,317.87,317.87,317.87,317.87,317.87,317.87,317.87,317.87,317.87,317.87,317.87,317.87,317.87,317.87,317.87,317.87,317.87,317.87,317.87,317.87,317.87,317.87,317.87,317.87,317.87,317.87,317.87,317.87,317.87,317.87,317.87,317.87,317.87,317.87,317.87,317.87,317.87,317.87,317.87,317.87,317.87,317.87,317.87,317.87,317.87,323.58,326.43,326.43,326.43,326.43,326.43,326.43,328.88,328.88,328.88,328.88,328.88,328.88,328.88,328.88,328.88,328.88,328.88,326.43,326.43,326.43,326.43,326.43,326.43,326.43,326.43,326.43,323.58,326.43,326.43,326.43,326.43,326.43,326.43,326.43,326.43,323.58,323.58,323.58,323.58,323.58,323.58,323.58,323.58,323.58,323.58,323.58,319.50,319.50,319.50,319.50,323.58,323.58,323.58,323.58,323.58,323.58,323.58,323.58,323.58,323.58,323.58,323.58,323.58,323.58,323.58,323.58,326.43,326.43,326.43,328.88,331.33,331.33,333.77,339.07,349.27,349.27,359.06,366.81,366.81,381.90,391.69,391.69,385.57,377.00,377.00,372.52,365.58,365.58,357.84,354.16,354.16,346.42,341.52,341.52,334.18,331.33,331.33,327.25,324.39,324.39,324.39,320.72,320.72,320.72,320.72,320.72,320.72,320.72,320.72,320.72,324.39,327.25,327.25,327.25,331.33,331.33,331.33,334.18,337.85,337.85,337.85,334.18,334.18,334.18,331.33,331.33,327.25,327.25,327.25,324.39,324.39,320.72,320.72,320.72,320.72,320.72,320.72,317.87,317.87,317.87
346.42,334.18,327.25,327.25,324.39,320.72,320.72,317.87,317.87,315.42,315.42,315.42,317.87,317.87,317.87,317.87,317.87,320.72,320.72,320.72,320.72,320.72,320.72,320.72,320.72,320.72,320.72,320.72,320.72,320.72,320.72,320.72,317.87,317.87,317.87,317.87,317.87,317.87,317.87,317.87,317.87,318.68,318.68,319.50,319.91,319.91,319.91,319.09,319.09,317.87,317.87,317.87,317.87,317.87,317.87,317.87,315.42,315.42,315.42,315.42,315.42,315.42,315.42,315.42,315.42,315.42,315.42,317.87,317.87,317.87,317.87,317.87,317.87,317.87,317.87,317.87,317.87,317.87,317.87,317.87,317.87,317.87,317.87,317.87,317.87,317.87,317.87,317.87,317.87,317.87,317.87,317.87,317.87,317.87,317.87,317.87,317.87,317.87,317.87,317.87,317.87,317.87,317.87,317.87,315.42,315.42,317.87,317.87,317.87,317.87,317.87,317.87,317.87,315.42,315.42,315.42,315.42,315.42,315.42,315.42,315.42,315.42,315.42,315.42,315.42,315.42,315.42,315.42,315.42,315.42,315.42,315.42,315.42,317.87,317.87,317.87,317.87,317.87,317.87,317.87,317.87,317.87,317.87,317.87,317.87,317.87,317.87,317.87,317.87,317.87,317.87,317.87,317.87,317.87,317.87,317.87,317.87,317.87,317.87,317.87,317.87,317.87,317.87,317.87,317.87,317.87,317.87,317.87,317.87,317.87,317.87,317.87,317.87,317.87,317.87,317.87,317.87,317.87,317.87,317.87,317.87,317.87,317.87,317.87,317.87,317.87,317.87,317.87,317.87,317.87,317.87,317.87,315.42,315.42,315.42,315.42,315.42,315.42,315.42,315.42,315.42,315.42,315.42,315.42,315.42,315.42,315.42,317.87,317.87,317.87,317.87,317.87,317.87,317.87,317.87,317.87,317.87,317.87,317.87,317.87,317.87,317.87,317.87,317.87,317.87,317.87,317.87,317.87,317.87,317.87,317.87,317.87,317.87,317.87,317.87,317.87,317.87,317.87,317.87,317.87,317.87,317.87,317.87,317.87,317.87,317.87,317.87,317.87,317.87,317.87,317.87,317.87,317.87,317.87,317.87,317.87,317.87,317.87,317.87,317.87,317.87,317.87,317.87,317.87,317.87,317.87,317.87,317.87,317.87,317.87,317.87,317.87,317.87,317.87,317.87,317.87,317.87,317.87,317.87,317.87,317.87,317.87,317.87,317.87,315.42,315.42,326.43,326.43,326.43,328.88,328.88,328.88,328.88,331.33,331.33,331.33,331.33,331.33,331.33,331.33,331.33,328.88,328.88,328.88,326.43,326.43,326.43,326.43,326.43,326.43,326.43,326.43,323.58,326.43,326.43,326.43,326.43,326.43,326.43,326.43,326.43,323.58,323.58,323.58,323.58,323.58,323.58,323.58,323.58,323.58,323.58,323.58,319.50,319.50,319.50,319.50,323.58,323.58,323.58,323.58,323.58,323.58,323.58,323.58,319.50,319.50,319.50,319.50,323.58,323.58,323.58,323.58,326.43,326.43,326.43,328.88,331.33,331.33,333.77,339.07,349.27,349.27,359.06,366.81,366.81,381.90,391.69,391.69,385.57,377.00,377.00,372.52,365.58,365.58,357.84,354.16,354.16,346.42,341.52,341.52,334.18,331.33,331.33,327.25,324.39,324.39,324.39,324.39,320.72,320.72,320.72,320.72,320.72,320.72,320.72,324.39,324.39,327.25,327.25,331.33,331.33,331.33,334.18,337.85,337.85,337.85,337.85,337.85,337.85,334.18,334.18,334.18,331.33,331.33,327.25,327.25,324.39,324.39,324.39,324.39,320.72,320.72,320.72,320.72,320.72,320.72
341.52,334.18,324.39,324.39,324.39,320.72,320.72,317.87,315.42,315.42,315.42,315.42,315.42,315.42,315.42,317.87,317.87,317.87,317.87,320.72,320.72,320.72,320.72,320.72,320.72,320.72,320.72,320.72,320.72,320.72,320.72,320.72,317.87,317.87,317.87,317.87,317.87,317.87,317.87,317.87,317.87,318.68,318.68,318.68,317.87,318.27,318.68,318.68,318.68,317.87,317.87,317.87,317.87,317.87,317.87,317.87,317.87,315.42,315.42,315.42,315.42,315.42,315.42,315.42,315.42,315.42,315.42,317.87,317.87,317.87,317.87,317.87,317.87,317.87,317.87,317.87,317.87,317.87,317.87,317.87,317.87,317.87,317.87,317.87,317.87,317.87,317.87,317.87,317.87,317.87,317.87,317.87,317.87,317.87,317.87,317.87,317.87,317.87,317.87,317.87,317.87,317.87,317.87,317.87,315.42,315.42,317.87,317.87,317.87,317.87,317.87,317.87,317.87,315.42,315.42,315.42,315.42,315.42,315.42,315.42,315.42,315.42,315.42,315.42,315.42,315.42,315.42,315.42,315.42,315.42,315.42,317.87,317.87,317.87,317.87,317.87,317.87,317.87,317.87,317.87,317.87,317.87,317.87,317.87,317.87,317.87,317.87,317.87,317.87,317.87,317.87,317.87,317.87,317.87,317.87,317.87,317.87,317.87,317.87,317.87,317.87,317.87,317.87,317.87,317.87,317.87,317.87,317.87,317.87,317.87,317.87,317.87,317.87,317.87,317.87,317.87,317.87,317.87,317.87,317.87,317.87,317.87,317.87,317.87,317.87,317.87,317.87,317.87,317.87,317.87,317.87,317.87,315.42,315.42,315.42,315.42,315.42,315.42,315.42,315.42,315.42,315.42,315.42,315.42,315.42,315.42,315.42,317.87,317.87,317.87,317.87,317.87,317.87,317.87,317.87,317.87,317.87,317.87,317.87,317.87,317.87,317.87,317.87,317.87,317.87,317.87,317.87,317.87,317.87,317.87,317.87,317.87,317.87,317.87,317.87,317.87,317.87,317.87,315.42,315.42,315.42,315.42,315.42,315.42,315.42,315.42,317.87,317.87,317.87,317.87,317.87,317.87,317.87,317.87,317.87,317.87,317.87,317.87,317.87,317.87,317.87,317.87,317.87,317.87,317.87,317.87,317.87,317.87,317.87,317.87,317.87,317.87,317.87,317.87,317.87,317.87,317.87,317.87,317.87,317.87,317.87,317.87,317.87,317.87,315.42,315.01,315.01,315.01,315.01,328.88,328.88,328.88,331.33,331.33,331.33,331.33,333.77,333.77,333.77,331.33,331.33,331.33,331.33,331.33,328.88,328.88,328.88,326.43,326.43,326.43,326.43,326.43,326.43,326.43,326.43,326.43,326.43,326.43,326.43,326.43,326.43,323.58,323.58,323.58,323.58,323.58,323.58,323.58,323.58,319.50,319.50,319.50,319.50,319.50,319.50,319.50,319.50,319.50,319.50,319.50,319.50,319.50,319.50,319.50,319.50,319.50,319.50,319.50,323.58,323.58,323.58,323.58,326.43,326.43,326.43,328.88,331.33,331.33,333.77,339.07,349.27,349.27,359.06,366.81,366.81,381.90,391.69,391.69,385.57,377.00,377.00,369.66,365.58,365.58,357.84,354.16,354.16,346.42,337.85,337.85,334.18,331.33,331.33,327.25,324.39,324.39,324.39,324.39,320.72,320.72,320.72,320.72,320.72,320.72,320.72,324.39,324.39,327.25,327.25,331.33,331.33,331.33,334.18,337.85,337.85,337.85,337.85,337.85,337.85,334.18,334.18,334.18,331.33,331.33,327.25,327.25,324.39,324.39,324.39,324.39,320.72,320.72,320.72,320.72,320.72,320.72
341.52,334.18,324.39,324.39,324.39,317.87,317.87,315.42,315.42,315.42,315.42,315.42,315.42,315.42,315.42,317.87,317.87,317.87,317.87,320.72,320.72,320.72,320.72,320.72,320.72,320.72,320.72,320.72,320.72,320.72,320.72,320.72,317.87,317.87,317.87,317.87,317.87,317.87,317.87,317.87,317.87,317.87,317.87,317.87,317.87,317.87,317.87,317.87,317.87,317.87,317.87,317.87,317.87,317.87,317.87,317.87,317.87,315.42,315.42,315.42,315.42,315.42,315.42,315.42,315.42,315.42,315.42,317.87,317.87,317.87,317.87,317.87,317.87,317.87,317.87,317.87,317.87,317.87,317.87,317.87,317.87,317.87,317.87,317.87,317.87,317.87,317.87,317.87,317.87,317.87,317.87,317.87,317.87,317.87,317.87,317.87,317.87,317.87,317.87,317.87,317.87,317.87,317.87,317.87,315.42,315.42,317.87,317.87,317.87,317.87,317.87,317.87,317.87,315.42,315.42,315.42,315.42,315.42,315.42,315.42,315.42,315.42,315.42,315.42,315.42,315.42,315.42,315.42,315.42,315.42,315.42,317.87,317.87,317.87,317.87,317.87,317.87,317.87,317.87,317.87,317.87,317.87,317.87,317.87,317.87,317.87,317.87,317.87,317.87,317.87,317.87,317.87,317.87,317.87,317.87,317.87,317.87,317.87,317.87,317.87,317.87,317.87,317.87,317.87,317.87,317.87,317.87,317.87,317.87,317.87,317.87,317.87,317.87,317.87,317.87,317.87,317.87,317.87,317.87,317.87,317.87,317.87,317.87,317.87,317.87,317.87,317.87,317.87,317.87,317.87,317.87,317.87,317.87,317.87,317.87,315.42,315.42,315.42,315.42,315.42,315.42,315.42,315.42,315.42,315.42,317.87,317.87,317.87,317.87,317.87,317.87,317.87,317.87,317.87,317.87,317.87,317.87,317.87,317.87,317.87,317.87,317.87,317.87,317.87,317.87,317.87,317.87,317.87,317.87,317.87,317.87,317.87,317.87,317.87,317.87,317.87,317.87,317.87,315.42,315.42,315.42,315.42,315.42,315.42,315.42,315.42,317.87,317.87,317.87,317.87,317.87,317.87,317.87,317.87,317.87,317.87,317.87,317.87,317.87,317.87,317.87,317.87,317.87,317.87,317.87,317.87,317.87,317.87,317.87,317.87,317.87,317.87,317.87,317.87,317.87,317.87,317.87,317.87,317.87,317.87,317.87,317.87,317.87,315.42,315.42,315.01,315.01,315.01,314.60,314.60,314.60,314.60,331.33,333.77,333.77,333.77,333.77,333.77,333.77,333.77,333.77,331.33,331.33,331.33,331.33,331.33,328.88,328.88,326.43,326.43,326.43,326.43,326.43,326.43,326.43,326.43,326.43,326.43,326.43,323.58,323.58,323.58,323.58,323.58,323.58,323.58,323.58,323.58,319.50,319.50,319.50,319.50,319.50,319.50,319.50,319.50,319.50,319.50,319.50,319.50,319.50,319.50,319.50,319.50,319.50,319.50,319.50,319.50,319.50,323.58,323.58,323.58,326.43,326.43,326.43,328.88,331.33,331.33,331.33,339.07,349.27,349.27,359.06,366.81,366.81,381.90,391.69,391.69,385.57,377.00,377.00,369.66,365.58,365.58,357.84,354.16,354.16,346.42,337.85,337.85,334.18,331.33,331.33,327.25,324.39,324.39,324.39,324.39,320.72,320.72,320.72,320.72,320.72,324.39,324.39,324.39,327.25,327.25,327.25,331.33,334.18,334.18,334.18,337.85,337.85,337.85,337.85,337.85,337.85,337.85,334.18,334.18,334.18,331.33,331.33,331.33,327.25,327.25,327.25,324.39,324.39,324.39,324.39,324.39,324.39,324.39
341.52,332.14,324.39,324.39,320.72,317.87,317.87,315.42,315.01,315.01,315.01,315.01,315.42,315.42,315.42,315.42,317.87,317.87,317.87,317.87,320.72,320.72,320.72,320.72,320.72,320.72,320.72,320.72,320.72,320.72,320.72,320.72,320.72,320.72,320.72,317.87,317.87,317.87,317.87,317.87,317.87,317.87,317.87,317.87,317.87,317.87,317.87,317.87,317.87,317.87,317.87,317.87,317.87,317.87,317.87,317.87,317.87,317.87,317.87,317.87,317.87,315.42,315.42,315.42,315.42,315.42,315.42,317.87,317.87,317.87,317.87,317.87,317.87,317.87,317.87,317.87,317.87,317.87,317.87,317.87,317.87,317.87,317.87,317.87,317.87,317.87,317.87,317.87,317.87,317.87,317.87,317.87,317.87,317.87,317.87,317.87,317.87,317.87,317.87,317.87,317.87,317.87,317.87,317.87,317.87,317.87,317.87,317.87,317.87,317.87,317.87,317.87,317.87,315.42,315.42,315.42,315.42,315.42,315.42,315.42,315.42,315.42,315.42,315.42,315.42,315.42,315.42,315.42,315.42,315.42,315.42,317.87,317.87,317.87,317.87,317.87,317.87,317.87,317.87,317.87,317.87,317.87,317.87,317.87,317.87,317.87,317.87,317.87,317.87,317.87,317.87,317.87,317.87,317.87,317.87,317.87,317.87,317.87,317.87,317.87,317.87,317.87,317.87,317.87,317.87,317.87,317.87,317.87,317.87,317.87,317.87,317.87,317.87,317.87,317.87,317.87,317.87,317.87,317.87,317.87,317.87,317.87,317.87,317.87,317.87,317.87,317.87,317.87,317.87,317.87,317.87,317.87,317.87,317.87,317.87,315.42,315.42,315.42,315.42,315.42,315.42,315.42,315.42,315.42,315.42,317.87,317.87,317.87,317.87,317.87,317.87,317.87,317.87,317.87,317.87,317.87,317.87,317.87,317.87,317.87,317.87,317.87,317.87,317.87,317.87,317.87,317.87,317.87,317.87,317.87,317.87,317.87,317.87,317.87,317.87,317.87,317.87,317.87,315.42,315.42,315.42,315.42,315.42,315.42,315.42,315.42,315.42,317.87,317.87,317.87,317.87,317.87,317.87,317.87,317.87,317.87,317.87,317.87,317.87,317.87,317.87,317.87,317.87,317.87,317.87,317.87,317.87,317.87,317.87,317.87,317.87,317.87,317.87,317.87,317.87,317.87,317.87,317.87,317.87,317.87,317.87,317.87,317.87,315.42,315.42,315.01,315.01,315.01,314.60,314.60,314.60,314.60,331.33,333.77,333.77,333.77,333.77,333.77,333.77,333.77,333.77,331.33,331.33,331.33,331.33,331.33,328.88,328.88,326.43,326.43,326.43,326.43,326.43,326.43,326.43,323.58,323.58,323.58,323.58,323.58,323.58,323.58,323.58,323.58,323.58,323.58,319.50,319.50,319.50,319.50,319.50,319.50,319.50,319.50,319.50,319.50,319.50,319.50,319.50,319.50,319.50,319.50,319.50,319.50,319.50,319.50,319.50,319.50,319.50,323.58,323.58,323.58,326.43,326.43,326.43,328.88,331.33,331.33,331.33,339.07,349.27,349.27,359.06,366.81,366.81,381.90,391.69,391.69,385.57,377.00,377.00,369.66,365.58,365.58,357.84,354.16,354.16,346.42,337.85,337.85,334.18,331.33,331.33,327.25,324.39,324.39,324.39,324.39,324.39,324.39,320.72,320.72,320.72,324.39,324.39,324.39,327.25,331.33,331.33,331.33,334.18,337.85,337.85,337.85,337.85,337.85,341.52,337.85,337.85,337.85,337.85,337.85,334.18,334.18,331.33,331.33,331.33,327.25,327.25,327.25,327.25,324.39,324.39,324.39,324.39,324.39
338.26,334.18,324.39,324.39,320.72,317.87,317.87,315.42,315.01,315.01,315.01,315.01,315.42,315.42,315.42,315.42,317.87,317.87,317.87,317.87,320.72,320.72,320.72,320.72,320.72,320.72,320.72,320.72,320.72,320.72,320.72,320.72,320.72,320.72,320.72,320.72,317.87,317.87,320.72,317.87,317.87,317.87,317.87,317.87,317.87,317.87,320.72,320.72,320.72,320.72,320.72,320.72,317.87,317.87,317.87,317.87,317.87,317.87,317.87,317.87,317.87,317.87,317.87,317.87,317.87,317.87,317.87,317.87,317.87,317.87,317.87,317.87,317.87,317.87,317.87,317.87,317.87,317.87,317.87,317.87,317.87,317.87,317.87,317.87,317.87,317.87,317.87,317.87,317.87,317.87,317.87,317.87,317.87,317.87,317.87,317.87,317.87,317.87,317.87,317.87,317.87,317.87,317.87,317.87,317.87,317.87,317.87,317.87,317.87,317.87,317.87,317.87,317.87,315.42,315.42,315.42,315.42,315.42,315.42,315.42,315.42,315.42,315.42,315.42,315.42,315.42,315.42,315.42,315.42,315.42,317.87,317.87,317.87,317.87,317.87,317.87,317.87,317.87,317.87,317.87,317.87,317.87,317.87,317.87,317.87,317.87,317.87,317.87,317.87,317.87,317.87,317.87,317.87,317.87,317.87,317.87,317.87,317.87,317.87,317.87,317.87,317.87,317.87,317.87,317.87,317.87,317.87,317.87,317.87,317.87,317.87,317.87,317.87,317.87,317.87,317.87,317.87,317.87,317.87,317.87,317.87,317.87,317.87,317.87,317.87,317.87,317.87,317.87,317.87,317.87,317.87,317.87,317.87,317.87,317.87,317.87,317.87,317.87,317.87,315.42,315.42,317.87,315.42,315.42,317.87,317.87,317.87,317.87,317.87,317.87,317.87,317.87,317.87,317.87,317.87,317.87,317.87,317.87,317.87,317.87,317.87,317.87,317.87,317.87,317.87,317.87,317.87,317.87,317.87,317.87,317.87,317.87,317.87,317.87,317.87,317.87,317.87,317.87,315.42,315.42,315.42,315.42,315.42,315.42,315.42,315.42,315.42,317.87,317.87,317.87,317.87,317.87,317.87,317.87,317.87,317.87,317.87,317.87,317.87,317.87,317.87,317.87,317.87,317.87,317.87,317.87,317.87,317.87,317.87,317.87,317.87,317.87,317.87,317.87,317.87,317.87,317.87,317.87,317.87,317.87,317.87,317.87,317.87,315.42,315.42,315.01,315.01,315.01,314.60,314.60,314.60,314.20,314.20,314.20,333.77,333.77,333.77,333.77,333.77,333.77,333.77,333.77,333.77,331.33,331.33,331.33,328.88,328.88,328.88,328.88,326.43,326.43,326.43,326.43,326.43,323.58,323.58,323.58,323.58,323.58,323.58,323.58,323.58,323.58,323.58,323.58,319.50,319.50,319.50,319.50,319.50,319.50,319.50,319.50,319.50,319.50,319.50,319.50,319.50,319.50,319.50,319.50,319.50,319.50,319.50,319.50,319.50,319.50,323.58,323.58,323.58,323.58,326.43,326.43,326.43,328.88,331.33,333.77,333.77,339.07,349.27,349.27,359.06,366.81,366.81,381.90,391.69,391.69,385.57,377.00,377.00,369.66,362.73,362.73,357.84,354.16,354.16,346.42,337.85,337.85,334.18,331.33,331.33,327.25,324.39,324.39,324.39,324.39,324.39,324.39,320.72,320.72,320.72,324.39,324.39,324.39,327.25,331.33,331.33,331.33,334.18,337.85,337.85,337.85,341.52,341.52,341.52,341.52,341.52,337.85,337.85,337.85,337.85,334.18,334.18,334.18,331.33,331.33,331.33,327.25,327.25,327.25,327.25,324.39,324.39,324.39
339.48,332.55,324.39,324.39,320.72,315.42,315.42,315.01,315.01,315.01,315.01,315.01,315.01,315.01,315.01,315.42,315.42,317.87,317.87,317.87,317.87,317.87,320.72,320.72,320.72,320.72,320.72,320.72,320.72,320.72,320.72,320.72,320.72,320.72,320.72,320.72,317.87,317.87,320.72,317.87,317.87,317.87,317.87,317.87,317.87,317.87,320.72,320.72,320.72,320.72,320.72,320.72,317.87,317.87,317.87,317.87,317.87,317.87,317.87,317.87,317.87,317.87,317.87,317.87,317.87,317.87,317.87,317.87,317.87,317.87,317.87,317.87,317.87,317.87,317.87,317.87,317.87,317.87,317.87,317.87,317.87,317.87,317.87,317.87,317.87,317.87,317.87,317.87,317.87,317.87,317.87,317.87,317.87,317.87,317.87,317.87,317.87,317.87,317.87,317.87,317.87,317.87,317.87,317.87,317.87,317.87,317.87,317.87,317.87,317.87,317.87,317.87,317.87,317.87,317.87,317.87,317.87,317.87,317.87,317.87,315.42,315.42,315.42,315.42,315.42,315.42,317.87,317.87,317.87,317.87,317.87,317.87,317.87,317.87,317.87,317.87,317.87,317.87,317.87,317.87,317.87,317.87,317.87,317.87,317.87,317.87,317.87,317.87,317.87,317.87,317.87,320.72,320.72,320.72,320.72,320.72,320.72,320.72,320.72,320.72,320.72,317.87,317.87,317.87,317.87,317.87,317.87,317.87,317.87,317.87,317.87,317.87,317.87,317.87,317.87,317.87,317.87,317.87,317.87,317.87,317.87,317.87,317.87,317.87,317.87,317.87,317.87,317.87,317.87,317.87,317.87,317.87,317.87,317.87,317.87,317.87,317.87,317.87,317.87,317.87,317.87,317.87,317.87,317.87,317.87,317.87,317.87,317.87,317.87,317.87,317.87,317.87,317.87,317.87,317.87,317.87,317.87,317.87,317.87,317.87,317.87,317.87,317.87,317.87,317.87,317.87,317.87,317.87,317.87,317.87,317.87,317.87,317.87,317.87,317.87,317.87,317.87,317.87,317.87,315.42,315.42,315.42,315.42,315.42,315.42,315.42,315.42,317.87,317.87,317.87,317.87,317.87,317.87,317.87,317.87,317.87,317.87,317.87,317.87,317.87,317.87,317.87,317.87,317.87,317.87,317.87,317.87,317.87,317.87,317.87,317.87,317.87,317.87,317.87,317.87,317.87,317.87,320.72,320.72,320.72,317.87,317.87,317.87,315.42,315.42,315.01,315.01,315.01,314.60,314.60,314.60,314.20,314.20,314.20,333.77,333.77,333.77,333.77,333.77,333.77,333.77,333.77,333.77,331.33,331.33,331.33,328.88,328.88,328.88,328.88,326.43,326.43,326.43,326.43,323.58,323.58,323.58,323.58,323.58,323.58,323.58,323.58,323.58,323.58,323.58,319.50,319.50,319.50,319.50,319.50,319.50,319.50,319.50,319.50,319.50,319.50,319.50,319.50,319.50,319.50,319.50,319.50,319.50,319.50,319.50,319.50,319.50,319.50,323.58,323.58,326.43,326.43,326.43,328.88,328.88,328.88,331.33,333.77,333.77,339.07,349.27,349.27,359.06,366.81,366.81,373.33,391.69,391.69,385.57,377.00,377.00,369.66,362.73,362.73,357.84,354.16,354.16,346.42,337.85,337.85,334.18,331.33,331.33,327.25,327.25,324.39,324.39,324.39,324.39,324.39,324.39,324.39,324.39,324.39,324.39,324.39,327.25,331.33,331.33,334.18,334.18,337.85,337.85,337.85,341.52,341.52,341.52,341.52,341.52,337.85,337.85,337.85,337.85,334.18,334.18,334.18,331.33,331.33,331.33,327.25,327.25,327.25,327.25,324.39,324.39,324.39
337.85,337.85,320.72,320.72,317.87,315.01,315.01,315.01,315.01,315.01,314.60,314.60,315.01,315.01,315.01,315.01,315.42,315.42,315.42,317.87,317.87,317.87,317.87,320.72,320.72,320.72,320.72,320.72,320.72,320.72,320.72,320.72,320.72,320.72,320.72,320.72,320.72,320.72,320.72,320.72,320.72,320.72,320.72,320.72,320.72,320.72,320.72,320.72,320.72,320.72,320.72,320.72,320.72,317.87,317.87,317.87,317.87,317.87,317.87,317.87,317.87,317.87,317.87,317.87,317.87,317.87,317.87,317.87,317.87,317.87,317.87,317.87,317.87,317.87,317.87,317.87,317.87,317.87,317.87,317.87,317.87,317.87,317.87,317.87,317.87,317.87,317.87,317.87,317.87,317.87,317.87,317.87,317.87,317.87,317.87,317.87,317.87,317.87,317.87,317.87,317.87,317.87,317.87,317.87,317.87,317.87,317.87,317.87,317.87,317.87,317.87,317.87,317.87,317.87,317.87,317.87,317.87,317.87,317.87,317.87,315.42,315.42,315.42,315.42,315.42,315.42,315.42,317.87,317.87,317.87,317.87,317.87,317.87,317.87,317.87,317.87,317.87,317.87,317.87,317.87,317.87,317.87,317.87,317.87,317.87,317.87,317.87,317.87,317.87,317.87,317.87,320.72,320.72,320.72,320.72,320.72,320.72,320.72,320.72,320.72,320.72,317.87,317.87,317.87,317.87,317.87,317.87,317.87,317.87,317.87,317.87,317.87,317.87,317.87,317.87,317.87,317.87,317.87,317.87,317.87,317.87,317.87,317.87,317.87,317.87,317.87,317.87,317.87,317.87,317.87,317.87,317.87,317.87,317.87,317.87,317.87,317.87,317.87,317.87,317.87,317.87,317.87,317.87,317.87,317.87,317.87,317.87,317.87,317.87,317.87,317.87,317.87,317.87,317.87,317.87,317.87,320.72,320.72,317.87,317.87,317.87,317.87,317.87,317.87,317.87,317.87,320.72,320.72,320.72,317.87,317.87,317.87,317.87,317.87,317.87,317.87,317.87,317.87,317.87,317.87,317.87,317.87,315.42,315.42,317.87,317.87,317.87,317.87,317.87,317.87,317.87,317.87,317.87,317.87,317.87,317.87,317.87,317.87,317.87,317.87,317.87,317.87,317.87,317.87,317.87,317.87,317.87,317.87,317.87,317.87,317.87,317.87,317.87,317.87,320.72,320.72,320.72,320.72,320.72,320.72,317.87,317.87,317.87,315.42,315.42,315.01,315.01,315.01,314.60,314.60,314.60,314.20,314.20,333.77,333.77,333.77,333.77,333.77,333.77,333.77,333.77,333.77,333.77,331.33,331.33,331.33,328.88,328.88,328.88,328.88,326.43,326.43,326.43,326.43,323.58,323.58,323.58,323.58,323.58,323.58,323.58,323.58,323.58,319.50,319.50,319.50,319.50,319.50,319.50,319.50,319.50,319.50,319.50,319.50,319.50,319.50,319.50,319.50,319.50,319.50,319.50,319.50,319.50,319.50,319.50,319.50,323.58,323.58,323.58,323.58,326.43,326.43,326.43,328.88,328.88,331.33,331.33,333.77,333.77,339.07,349.27,349.27,366.81,366.81,366.81,381.90,391.69,391.69,385.57,377.00,377.00,369.66,362.73,362.73,357.84,354.16,354.16,346.42,337.85,337.85,334.18,331.33,331.33,327.25,327.25,324.39,324.39,324.39,324.39,324.39,324.39,324.39,324.39,324.39,324.39,327.25,327.25,331.33,331.33,334.18,334.18,337.85,337.85,337.85,341.52,341.52,341.52,341.52,341.52,341.52,337.85,337.85,337.85,334.18,334.18,334.18,331.33,331.33,331.33,331.33,331.33,327.25,327.25,327.25,327.25,327.25
337.85,337.85,320.72,320.72,317.87,315.01,315.01,315.01,315.01,315.01,314.60,314.60,315.01,315.01,315.01,315.01,315.42,315.42,315.42,317.87,317.87,317.87,317.87,320.72,320.72,320.72,320.72,320.72,320.72,320.72,320.72,320.72,320.72,320.72,320.72,320.72,320.72,320.72,320.72,320.72,320.72,320.72,320.72,320.72,320.72,320.72,320.72,320.72,320.72,320.72,320.72,320.72,320.72,320.72,320.72,320.72,317.87,317.87,317.87,317.87,317.87,317.87,317.87,317.87,317.87,317.87,317.87,317.87,317.87,317.87,317.87,317.87,317.87,317.87,317.87,317.87,317.87,317.87,317.87,317.87,317.87,317.87,317.87,317.87,317.87,320.72,320.72,317.87,317.87,317.87,317.87,317.87,317.87,317.87,317.87,317.87,317.87,317.87,317.87,317.87,317.87,317.87,317.87,317.87,317.87,317.87,317.87,317.87,317.87,317.87,317.87,317.87,317.87,317.87,317.87,317.87,317.87,317.87,317.87,317.87,315.42,315.42,315.42,315.42,317.87,315.42,315.42,317.87,317.87,317.87,317.87,317.87,317.87,317.87,317.87,317.87,317.87,317.87,320.72,317.87,317.87,320.72,320.72,320.72,320.72,320.72,320.72,320.72,320.72,320.72,320.72,320.72,320.72,320.72,320.72,320.72,320.72,320.72,320.72,320.72,320.72,320.72,320.72,320.72,320.72,317.87,317.87,317.87,317.87,317.87,317.87,317.87,317.87,317.87,317.87,317.87,317.87,317.87,317.87,317.87,317.87,317.87,317.87,317.87,317.87,317.87,317.87,317.87,317.87,317.87,317.87,317.87,317.87,317.87,317.87,317.87,317.87,317.87,317.87,317.87,317.87,317.87,317.87,317.87,317.87,317.87,317.87,317.87,317.87,320.72,320.72,317.87,317.87,317.87,320.72,320.72,320.72,320.72,317.87,317.87,317.87,317.87,317.87,317.87,317.87,317.87,320.72,320.72,320.72,317.87,317.87,317.87,317.87,317.87,317.87,317.87,317.87,317.87,317.87,317.87,317.87,317.87,315.42,315.42,317.87,317.87,317.87,317.87,317.87,317.87,317.87,317.87,317.87,317.87,317.87,317.87,317.87,317.87,317.87,317.87,317.87,317.87,317.87,317.87,317.87,317.87,317.87,317.87,317.87,317.87,317.87,317.87,317.87,317.87,320.72,320.72,320.72,320.72,320.72,320.72,317.87,317.87,317.87,315.42,315.01,315.01,315.01,314.60,314.60,314.60,314.20,314.20,314.20,333.77,333.77,333.77,333.77,333.77,333.77,333.77,333.77,333.77,333.77,331.33,331.33,331.33,328.88,328.88,328.88,328.88,326.43,326.43,326.43,326.43,323.58,323.58,323.58,323.58,323.58,323.58,323.58,323.58,323.58,319.50,319.50,319.50,319.50,319.50,319.50,319.50,319.50,319.50,319.50,319.50,319.50,319.50,319.50,319.50,319.50,319.50,319.50,319.50,319.50,319.50,319.50,319.50,323.58,323.58,323.58,323.58,326.43,326.43,326.43,328.88,328.88,331.33,331.33,333.77,333.77,339.07,349.27,349.27,366.81,366.81,366.81,381.90,391.69,391.69,385.57,377.00,377.00,369.66,365.58,365.58,357.84,354.16,354.16,346.42,337.85,337.85,334.18,331.33,331.33,331.33,327.25,327.25,327.25,324.39,324.39,324.39,324.39,324.39,324.39,327.25,327.25,327.25,331.33,331.33,331.33,334.18,337.85,337.85,337.85,341.52,341.52,341.52,341.52,341.52,341.52,341.52,337.85,337.85,337.85,334.18,334.18,334.18,334.18,331.33,331.33,331.33,331.33,331.33,331.33,331.33,327.25,327.25
337.85,337.85,317.87,317.87,315.42,315.01,315.01,315.01,315.01,315.01,314.60,314.60,315.01,315.01,315.01,315.01,315.42,315.42,315.42,317.87,317.87,317.87,317.87,317.87,320.72,320.72,320.72,320.72,320.72,320.72,320.72,320.72,320.72,320.72,320.72,320.72,320.72,320.72,320.72,320.72,320.72,320.72,320.72,320.72,320.72,320.72,320.72,320.72,320.72,320.72,320.72,320.72,320.72,320.72,320.72,320.72,320.72,317.87,317.87,317.87,317.87,317.87,317.87,317.87,317.87,317.87,317.87,317.87,317.87,317.87,317.87,317.87,317.87,317.87,317.87,317.87,317.87,317.87,317.87,317.87,317.87,320.72,317.87,317.87,317.87,320.72,320.72,320.72,320.72,317.87,317.87,317.87,317.87,317.87,317.87,317.87,317.87,317.87,317.87,317.87,317.87,317.87,317.87,317.87,317.87,317.87,317.87,317.87,317.87,317.87,317.87,317.87,317.87,317.87,317.87,317.87,317.87,317.87,317.87,317.87,317.87,317.87,317.87,317.87,317.87,317.87,317.87,317.87,317.87,317.87,317.87,320.72,320.72,320.72,320.72,320.72,320.72,320.72,320.72,320.72,320.72,320.72,320.72,320.72,320.72,320.72,320.72,320.72,320.72,320.72,320.72,320.72,320.72,320.72,320.72,320.72,320.72,320.72,320.72,320.72,320.72,320.72,320.72,320.72,320.72,317.87,317.87,317.87,317.87,317.87,317.87,317.87,317.87,317.87,317.87,317.87,317.87,317.87,317.87,317.87,317.87,317.87,317.87,317.87,320.72,317.87,317.87,317.87,317.87,317.87,317.87,317.87,317.87,317.87,320.72,317.87,317.87,320.72,320.72,320.72,320.72,320.72,320.72,320.72,320.72,320.72,320.72,320.72,320.72,320.72,320.72,320.72,320.72,320.72,320.72,320.72,320.72,320.72,320.72,320.72,320.72,320.72,320.72,320.72,320.72,320.72,320.72,320.72,320.72,320.72,320.72,317.87,317.87,317.87,317.87,317.87,317.87,317.87,317.87,317.87,317.87,317.87,317.87,317.87,317.87,317.87,317.87,317.87,317.87,317.87,317.87,320.72,320.72,320.72,320.72,320.72,320.72,320.72,320.72,320.72,320.72,320.72,320.72,317.87,317.87,317.87,317.87,317.87,317.87,317.87,317.87,320.72,320.72,320.72,320.72,320.72,320.72,320.72,320.72,320.72,317.87,317.87,317.87,315.42,315.01,315.01,315.01,314.60,314.60,314.60,314.20,313.79,313.79,313.79,313.79,326.02,331.73,332.14,333.77,333.77,333.77,331.33,331.33,331.33,331.33,331.33,328.88,328.88,326.43,326.43,326.43,326.43,326.43,326.43,323.58,323.58,323.58,323.58,323.58,323.58,323.58,323.58,319.50,319.50,319.50,319.50,319.50,319.50,319.50,319.50,319.50,319.50,319.50,319.50,319.50,319.50,319.50,319.50,319.50,319.50,319.50,319.50,319.50,319.50,319.50,319.50,323.58,323.58,323.58,323.58,326.43,326.43,326.43,328.88,328.88,331.33,331.33,333.77,333.77,339.07,349.27,349.27,366.81,366.81,366.81,381.90,391.69,391.69,385.57,377.00,377.00,369.66,365.58,365.58,357.84,354.16,354.16,346.42,337.85,337.85,334.18,331.33,331.33,331.33,327.25,327.25,327.25,324.39,324.39,324.39,324.39,324.39,324.39,327.25,327.25,327.25,331.33,331.33,331.33,334.18,337.85,337.85,337.85,341.52,341.52,341.52,341.52,341.52,341.52,341.52,337.85,337.85,337.85,334.18,334.18,334.18,334.18,331.33,331.33,331.33,331.33,331.33,331.33,331.33,327.25,327.25
337.85,331.33,317.87,317.87,315.01,315.01,315.42,314.60,314.60,314.60,314.60,314.60,314.60,315.01,315.01,315.01,315.42,315.42,315.42,315.42,317.87,317.87,317.87,317.87,317.87,317.87,317.87,317.87,317.87,320.72,320.72,320.72,320.72,320.72,320.72,320.72,320.72,320.72,320.72,320.72,320.72,320.72,320.72,320.72,320.72,320.72,320.72,320.72,320.72,320.72,320.72,320.72,320.72,320.72,320.72,320.72,320.72,317.87,317.87,317.87,317.87,317.87,317.87,317.87,317.87,317.87,317.87,317.87,317.87,317.87,317.87,317.87,317.87,317.87,317.87,317.87,317.87,317.87,317.87,317.87,317.87,320.72,317.87,317.87,317.87,320.72,320.72,320.72,320.72,317.87,317.87,317.87,317.87,317.87,317.87,317.87,317.87,317.87,317.87,317.87,317.87,317.87,317.87,317.87,317.87,317.87,317.87,317.87,317.87,317.87,317.87,317.87,317.87,317.87,317.87,317.87,317.87,317.87,317.87,317.87,317.87,317.87,317.87,317.87,317.87,317.87,317.87,317.87,317.87,317.87,317.87,320.72,320.72,320.72,320.72,320.72,320.72,320.72,320.72,320.72,320.72,320.72,320.72,320.72,320.72,320.72,320.72,320.72,320.72,320.72,320.72,320.72,320.72,320.72,320.72,324.39,324.39,324.39,324.39,324.39,324.39,320.72,320.72,320.72,320.72,320.72,320.72,320.72,317.87,317.87,317.87,317.87,317.87,317.87,317.87,317.87,317.87,317.87,317.87,317.87,317.87,317.87,320.72,320.72,320.72,320.72,320.72,320.72,320.72,320.72,320.72,320.72,320.72,320.72,320.72,320.72,320.72,320.72,320.72,320.72,320.72,320.72,320.72,320.72,320.72,320.72,320.72,320.72,320.72,320.72,320.72,320.72,320.72,320.72,320.72,320.72,320.72,320.72,320.72,320.72,320.72,320.72,320.72,320.72,320.72,320.72,320.72,320.72,320.72,320.72,320.72,320.72,317.87,317.87,317.87,317.87,317.87,317.87,317.87,317.87,317.87,317.87,317.87,317.87,317.87,317.87,317.87,317.87,317.87,317.87,320.72,320.72,320.72,320.72,320.72,320.72,320.72,320.72,320.72,320.72,320.72,320.72,320.72,320.72,320.72,320.72,320.72,320.72,320.72,320.72,320.72,320.72,320.72,320.72,320.72,320.72,320.72,320.72,320.72,320.72,317.87,317.87,317.87,315.42,315.01,315.01,315.01,314.60,314.20,314.20,314.20,313.79,313.79,313.79,313.79,321.13,326.43,330.10,333.77,333.77,331.33,331.33,331.33,331.33,331.33,331.33,328.88,328.88,326.43,326.43,326.43,326.43,323.58,323.58,323.58,323.58,323.58,323.58,323.58,323.58,323.58,319.50,319.50,319.50,319.50,319.50,319.50,319.50,319.50,319.50,319.50,319.50,319.50,319.50,319.50,319.50,319.50,319.50,319.50,319.50,319.50,319.50,319.50,319.50,319.50,323.58,323.58,323.58,323.58,326.43,326.43,326.43,328.88,328.88,328.88,331.33,333.77,333.77,333.77,339.07,349.27,349.27,366.81,366.81,366.81,373.33,391.69,391.69,385.57,377.00,377.00,372.52,365.58,365.58,357.84,354.16,354.16,346.42,341.52,341.52,334.18,334.18,331.33,331.33,327.25,327.25,327.25,327.25,324.39,324.39,324.39,324.39,324.39,327.25,327.25,331.33,331.33,334.18,334.18,334.18,337.85,337.85,337.85,341.52,341.52,341.52,341.52,341.52,341.52,341.52,337.85,337.85,337.85,334.18,334.18,334.18,334.18,331.33,331.33,331.33,331.33,331.33,331.33,331.33,331.33,331.33
337.44,326.43,323.98,318.68,316.24,315.42,315.83,314.60,314.60,314.60,314.60,314.60,314.60,315.01,315.01,315.01,315.01,315.01,315.42,315.42,317.87,317.87,317.87,317.87,317.87,317.87,317.87,317.87,317.87,317.87,320.72,320.72,320.72,320.72,320.72,320.72,320.72,320.72,320.72,320.72,320.72,320.72,320.72,320.72,320.72,320.72,320.72,320.72,320.72,320.72,320.72,320.72,320.72,320.72,320.72,320.72,320.72,320.72,320.72,317.87,317.87,317.87,317.87,317.87,317.87,317.87,317.87,317.87,317.87,317.87,317.87,317.87,317.87,317.87,317.87,317.87,317.87,317.87,317.87,317.87,317.87,320.72,320.72,320.72,320.72,320.72,320.72,320.72,320.72,320.72,320.72,320.72,320.72,320.72,320.72,320.72,320.72,320.72,317.87,317.87,317.87,317.87,317.87,317.87,317.87,317.87,317.87,317.87,317.87,317.87,317.87,317.87,317.87,317.87,317.87,317.87,317.87,318.27,318.27,317.87,317.87,317.87,317.87,317.87,317.87,317.87,317.87,317.87,317.87,317.87,320.72,320.72,320.72,320.72,320.72,320.72,320.72,320.72,320.72,320.72,320.72,320.72,320.72,320.72,320.72,320.72,320.72,320.72,320.72,320.72,320.72,320.72,320.72,324.39,324.39,324.39,324.39,324.39,324.39,324.39,324.39,320.72,320.72,320.72,320.72,320.72,320.72,320.72,317.87,317.87,317.87,317.87,317.87,317.87,317.87,317.87,317.87,317.87,317.87,317.87,317.87,317.87,320.72,320.72,320.72,320.72,320.72,320.72,320.72,320.72,320.72,320.72,320.72,320.72,320.72,320.72,320.72,320.72,320.72,320.72,320.72,320.72,320.72,320.72,320.72,320.72,320.72,320.72,320.72,320.72,320.72,320.72,320.72,320.72,320.72,320.72,320.72,320.72,320.72,320.72,320.72,320.72,320.72,320.72,320.72,320.72,320.72,320.72,320.72,320.72,320.72,320.72,317.87,317.87,317.87,317.87,317.87,317.87,317.87,317.87,317.87,317.87,317.87,317.87,317.87,317.87,317.87,317.87,317.87,317.87,320.72,320.72,320.72,320.72,320.72,320.72,320.72,320.72,320.72,320.72,320.72,320.72,320.72,320.72,320.72,320.72,320.72,320.72,320.72,320.72,320.72,320.72,320.72,320.72,320.72,320.72,320.72,320.72,320.72,320.72,317.87,317.87,317.87,315.42,315.01,315.01,315.01,314.60,314.20,314.20,314.20,313.79,313.79,313.79,313.79,319.50,322.76,328.06,331.33,331.33,331.33,331.33,331.33,331.33,328.88,328.88,328.88,328.88,326.43,326.43,326.43,326.43,323.58,323.58,323.58,323.58,323.58,323.58,323.58,319.50,319.50,319.50,319.50,319.50,319.50,319.50,319.50,319.50,319.50,319.50,319.50,319.50,319.50,319.50,319.50,319.50,319.50,319.50,319.50,319.50,319.50,319.50,319.50,319.50,319.50,323.58,323.58,323.58,323.58,326.43,326.43,326.43,328.88,328.88,328.88,331.33,333.77,333.77,333.77,339.07,349.27,349.27,366.81,366.81,366.81,373.33,391.69,391.69,391.69,379.86,379.86,372.52,365.58,365.58,362.73,354.16,354.16,350.49,341.52,341.52,337.85,334.18,331.33,331.33,327.25,327.25,327.25,327.25,327.25,327.25,327.25,327.25,327.25,327.25,327.25,331.33,331.33,334.18,334.18,337.85,337.85,341.52,341.52,341.52,341.52,341.52,341.52,341.52,341.52,341.52,337.85,337.85,337.85,337.85,334.18,334.18,334.18,334.18,334.18,334.18,331.33,331.33,331.33,331.33,331.33,331.33
332.55,326.02,323.98,318.68,316.24,315.42,315.42,314.60,314.60,314.60,314.60,314.60,314.60,315.01,315.01,315.01,315.01,315.01,315.42,317.87,317.87,317.87,317.87,317.87,317.87,317.87,317.87,317.87,317.87,317.87,320.72,320.72,320.72,320.72,320.72,320.72,320.72,320.72,320.72,320.72,320.72,320.72,320.72,320.72,320.72,320.72,320.72,320.72,320.72,320.72,320.72,320.72,320.72,320.72,320.72,320.72,320.72,320.72,320.72,317.87,317.87,317.87,317.87,317.87,317.87,320.72,317.87,317.87,317.87,317.87,317.87,320.72,320.72,320.72,320.72,319.09,318.68,319.09,320.72,320.72,320.72,320.72,320.72,320.72,320.72,320.72,320.72,320.72,320.72,320.72,320.72,320.72,320.72,320.72,320.72,320.72,320.72,320.72,320.72,320.72,320.72,320.72,320.72,320.72,320.72,317.87,317.87,317.87,317.87,320.72,320.72,320.72,317.87,317.87,317.87,317.87,317.87,318.68,319.09,318.27,317.87,317.87,317.87,317.87,317.87,317.87,317.87,320.72,320.72,320.72,320.72,320.72,320.72,320.72,320.72,320.72,320.72,320.72,320.72,320.72,320.72,320.72,320.72,320.72,320.72,320.72,320.72,320.72,320.72,324.39,324.39,324.39,324.39,324.39,324.39,324.39,324.39,324.39,324.39,324.39,324.39,324.39,324.39,324.39,320.72,320.72,320.72,320.72,320.72,320.72,320.72,317.87,317.87,317.87,317.87,320.72,320.72,320.72,320.72,320.72,320.72,320.72,320.72,320.72,320.72,320.72,320.72,320.72,320.72,320.72,320.72,320.72,320.72,320.72,320.72,320.72,320.72,320.72,320.72,320.72,320.72,320.72,320.72,320.72,320.72,320.72,320.72,320.72,320.72,320.72,320.72,320.72,320.72,320.72,320.72,320.72,320.72,320.72,320.72,320.72,320.72,320.72,320.72,320.72,320.72,320.72,320.72,320.72,320.72,320.72,320.72,320.72,320.72,320.72,320.72,317.87,317.87,317.87,317.87,317.87,317.87,317.87,317.87,317.87,317.87,317.87,317.87,320.72,320.72,320.72,320.72,320.72,320.72,320.72,320.72,320.72,320.72,320.72,320.72,320.72,320.72,320.72,320.72,320.72,320.72,320.72,320.72,320.72,320.72,320.72,320.72,320.72,320.72,320.72,320.72,320.72,320.72,320.72,320.72,320.72,317.87,317.87,317.87,315.42,315.01,315.01,315.01,314.60,314.20,314.20,314.20,313.79,313.79,313.38,313.38,313.38,319.50,328.88,331.33,331.33,331.33,331.33,331.33,331.33,328.88,328.88,328.88,328.88,326.43,326.43,326.43,326.43,323.58,323.58,323.58,323.58,323.58,323.58,323.58,319.50,319.50,319.50,319.50,319.50,319.50,319.50,319.50,319.50,319.50,319.50,319.50,319.50,319.50,319.50,319.50,319.50,319.50,319.50,319.50,319.50,319.50,319.50,319.50,323.58,323.58,323.58,323.58,323.58,323.58,326.43,326.43,326.43,328.88,331.33,331.33,331.33,333.77,333.77,339.07,339.07,349.27,349.27,366.81,366.81,366.81,373.33,391.69,391.69,391.69,379.86,379.86,372.52,365.58,365.58,362.73,354.16,354.16,350.49,341.52,341.52,337.85,334.18,331.33,331.33,327.25,327.25,327.25,327.25,327.25,327.25,327.25,327.25,327.25,331.33,331.33,331.33,334.18,334.18,334.18,337.85,341.52,341.52,341.52,346.42,346.42,346.42,341.52,341.52,341.52,341.52,337.85,337.85,337.85,337.85,334.18,334.18,334.18,334.18,334.18,334.18,334.18,334.18,334.18,334.18,334.18,334.18
330.10,323.58,319.91,317.87,315.83,314.60,314.60,314.20,314.20,314.60,314.60,314.60,314.60,315.01,315.01,315.01,315.01,315.01,315.42,315.42,317.87,317.87,317.87,317.87,317.87,317.87,317.87,317.87,317.87,317.87,320.72,320.72,320.72,320.72,320.72,320.72,320.72,320.72,320.72,320.72,320.72,320.72,320.72,320.72,320.72,320.72,320.72,320.72,320.72,320.72,320.72,320.72,320.72,320.72,320.72,320.72,320.72,320.72,320.72,317.87,317.87,317.87,317.87,317.87,317.87,320.72,317.87,317.87,317.87,317.87,317.87,320.72,320.72,320.72,320.72,319.91,319.50,319.91,320.72,320.72,320.72,320.72,320.72,320.72,320.72,320.72,320.72,320.72,320.72,320.72,320.72,320.72,320.72,320.72,320.72,320.72,320.72,320.72,320.72,320.72,320.72,320.72,320.72,320.72,320.72,320.72,320.72,320.72,320.72,320.72,320.72,320.72,320.72,320.72,320.72,320.72,320.72,319.50,319.09,319.50,320.72,320.72,317.87,317.87,320.72,320.72,320.72,320.72,320.72,320.72,320.72,320.72,320.72,320.72,320.72,320.72,320.72,320.72,320.72,320.72,320.72,320.72,320.72,320.72,320.72,320.72,320.72,320.72,324.39,324.39,324.39,324.39,324.39,324.39,324.39,324.39,324.39,324.39,324.39,324.39,324.39,324.39,324.39,324.39,324.39,320.72,320.72,320.72,320.72,320.72,320.72,320.72,320.72,320.72,320.72,320.72,320.72,320.72,320.72,320.72,320.72,320.72,320.72,320.72,320.72,320.72,320.72,320.72,320.72,320.72,320.72,320.72,320.72,320.72,320.72,320.72,320.72,324.39,324.39,324.39,324.39,324.39,324.39,324.39,324.39,324.39,320.72,320.72,320.72,320.72,320.72,320.72,320.72,320.72,320.72,320.72,320.72,320.72,320.72,320.72,320.72,320.72,320.72,320.72,320.72,320.72,320.72,320.72,320.72,320.72,320.72,320.72,320.72,320.72,320.72,320.72,320.72,320.72,320.72,320.72,320.72,317.87,317.87,320.72,320.72,320.72,320.72,320.72,320.72,320.72,320.72,324.39,324.39,324.39,324.39,324.39,324.39,324.39,324.39,324.39,324.39,320.72,320.72,320.72,320.72,320.72,320.72,320.72,320.72,320.72,320.72,320.72,320.72,320.72,320.72,320.72,320.72,320.72,320.72,320.72,317.87,317.87,317.87,315.42,315.01,315.01,315.01,314.60,314.20,314.20,314.20,313.79,313.79,313.38,313.38,313.38,313.38,313.38,328.88,328.88,328.88,328.88,328.88,328.88,328.88,328.88,328.88,326.43,326.43,326.43,326.43,326.43,323.58,323.58,323.58,323.58,319.50,319.50,319.50,319.50,319.50,319.50,319.50,319.50,319.50,319.50,319.50,319.50,319.50,319.50,319.50,319.50,319.50,319.50,319.50,319.50,319.50,319.50,319.50,319.50,319.50,319.50,323.58,323.58,323.58,323.58,323.58,323.58,326.43,326.43,328.88,328.88,328.88,331.33,331.33,331.33,333.77,333.77,339.07,339.07,349.27,349.27,366.81,366.81,366.81,373.33,381.90,381.90,391.69,379.86,379.86,372.52,365.58,365.58,362.73,354.16,354.16,350.49,341.52,341.52,337.85,334.18,331.33,331.33,331.33,327.25,327.25,327.25,327.25,327.25,327.25,327.25,327.25,331.33,331.33,331.33,334.18,334.18,334.18,337.85,341.52,341.52,341.52,346.42,346.42,346.42,341.52,341.52,341.52,341.52,337.85,337.85,337.85,337.85,334.18,334.18,334.18,334.18,334.18,334.18,334.18,334.18,334.18,334.18,334.18,334.18
326.02,320.72,317.46,315.01,314.60,314.20,314.20,314.20,314.20,314.20,314.20,314.60,314.60,315.01,315.01,315.01,315.42,315.42,315.42,315.42,317.87,317.87,317.87,317.87,317.87,317.87,317.87,317.87,317.87,317.87,320.72,320.72,320.72,320.72,320.72,320.72,320.72,320.72,320.72,320.72,320.72,320.72,320.72,320.72,320.72,324.39,324.39,324.39,324.39,320.72,320.72,320.72,320.72,320.72,320.72,320.72,320.72,320.72,320.72,320.72,320.72,320.72,320.72,320.72,320.72,320.72,320.72,320.72,320.72,320.72,320.72,320.72,320.72,320.72,320.72,320.72,320.72,320.72,320.72,320.72,320.72,320.72,320.72,320.72,320.72,320.72,320.72,320.72,320.72,320.72,320.72,320.72,320.72,320.72,320.72,320.72,320.72,320.72,320.72,320.72,320.72,320.72,320.72,320.72,320.72,320.72,320.72,320.72,320.72,320.72,320.72,320.72,320.72,320.72,320.72,320.72,320.72,320.72,320.72,320.72,320.72,320.72,317.87,317.87,320.72,320.72,320.72,320.72,320.72,320.72,320.72,320.72,320.72,320.72,320.72,320.72,320.72,320.72,320.72,320.72,320.72,320.72,320.72,320.72,320.72,320.72,320.72,320.72,324.39,324.39,324.39,324.39,324.39,324.39,324.39,324.39,324.39,324.39,324.39,324.39,324.39,324.39,324.39,324.39,324.39,320.72,320.72,320.72,320.72,320.72,320.72,320.72,320.72,320.72,320.72,320.72,320.72,320.72,320.72,320.72,320.72,320.72,320.72,320.72,320.72,320.72,320.72,320.72,320.72,320.72,320.72,320.72,320.72,320.72,320.72,320.72,320.72,324.39,324.39,324.39,324.39,324.39,324.39,324.39,324.39,324.39,320.72,320.72,320.72,320.72,320.72,320.72,320.72,320.72,320.72,320.72,320.72,320.72,320.72,320.72,320.72,320.72,320.72,320.72,320.72,320.72,320.72,320.72,320.72,320.72,320.72,320.72,320.72,320.72,320.72,320.72,320.72,320.72,320.72,320.72,320.72,320.72,320.72,320.72,320.72,320.72,320.72,320.72,320.72,324.39,324.39,324.39,324.39,324.39,324.39,324.39,324.39,324.39,324.39,324.39,324.39,324.39,324.39,324.39,324.39,324.39,324.39,324.39,324.39,324.39,324.39,324.39,324.39,324.39,324.39,320.72,320.72,320.72,320.72,320.72,317.87,317.87,317.87,315.42,315.42,315.01,315.01,314.60,314.60,314.60,314.20,313.79,313.79,313.38,313.38,313.38,313.38,313.38,326.43,328.88,328.88,326.43,326.43,326.43,326.43,326.43,326.43,326.43,326.43,326.43,326.43,323.58,323.58,323.58,323.58,319.50,319.50,319.50,319.50,319.50,319.50,319.50,319.50,319.50,319.50,319.50,319.50,319.50,319.50,319.50,319.50,319.50,319.50,319.50,319.50,319.50,319.50,319.50,319.50,319.50,319.50,319.50,323.58,323.58,323.58,323.58,326.43,326.43,326.43,326.43,328.88,328.88,328.88,331.33,331.33,333.77,333.77,333.77,339.07,339.07,349.27,349.27,359.06,366.81,366.81,373.33,381.90,381.90,391.69,379.86,379.86,372.52,369.66,369.66,362.73,357.84,357.84,350.49,341.52,341.52,337.85,334.18,334.18,334.18,331.33,331.33,331.33,327.25,327.25,327.25,327.25,327.25,331.33,331.33,331.33,331.33,334.18,337.85,337.85,337.85,341.52,341.52,341.52,346.42,346.42,346.42,346.42,341.52,341.52,341.52,341.52,337.85,337.85,337.85,334.18,334.18,334.18,334.18,334.18,334.18,334.18,334.18,334.18,334.18,334.18,334.18
323.17,318.68,315.01,314.60,314.20,314.20,314.20,314.20,314.20,314.20,314.20,314.60,314.60,315.01,315.01,315.01,315.42,315.42,315.42,317.87,317.87,317.87,317.87,317.87,317.87,317.87,317.87,317.87,317.87,320.72,320.72,320.72,320.72,320.72,320.72,320.72,320.72,320.72,320.72,320.72,320.72,320.72,320.72,320.72,324.39,324.39,324.39,324.39,324.39,324.39,324.39,320.72,320.72,320.72,320.72,320.72,320.72,320.72,320.72,320.72,320.72,320.72,320.72,320.72,320.72,320.72,320.72,320.72,320.72,320.72,320.72,320.72,320.72,320.72,320.72,320.72,320.72,320.72,320.72,320.72,320.72,320.72,320.72,320.72,320.72,320.72,320.72,320.72,320.72,320.72,320.72,320.72,320.72,320.72,320.72,320.72,320.72,320.72,320.72,320.72,320.72,320.72,320.72,320.72,320.72,320.72,320.72,320.72,320.72,320.72,320.72,320.72,320.72,320.72,320.72,320.72,320.72,320.72,320.72,320.72,320.72,320.72,320.72,320.72,320.72,320.72,320.72,320.72,320.72,320.72,320.72,320.72,320.72,320.72,320.72,320.72,320.72,320.72,320.72,320.72,320.72,324.39,324.39,324.39,324.39,324.39,324.39,324.39,324.39,324.39,324.39,324.39,324.39,324.39,324.39,324.39,324.39,324.39,324.39,324.39,324.39,324.39,324.39,324.39,324.39,324.39,320.72,320.72,320.72,320.72,320.72,320.72,320.72,320.72,320.72,320.72,320.72,320.72,320.72,320.72,320.72,320.72,320.72,320.72,320.72,320.72,320.72,320.72,320.72,320.72,320.72,320.72,320.72,320.72,324.39,324.39,324.39,324.39,324.39,324.39,324.39,324.39,324.39,324.39,324.39,324.39,324.39,324.39,324.39,324.39,320.72,320.72,320.72,320.72,320.72,320.72,320.72,320.72,320.72,320.72,320.72,320.72,320.72,320.72,320.72,320.72,320.72,320.72,320.72,320.72,320.72,320.72,320.72,320.72,320.72,320.72,320.72,320.72,320.72,320.72,320.72,320.72,320.72,320.72,320.72,320.72,320.72,320.72,320.72,324.39,324.39,324.39,324.39,324.39,324.39,324.39,324.39,324.39,324.39,324.39,324.39,324.39,324.39,324.39,324.39,324.39,324.39,324.39,324.39,324.39,324.39,324.39,324.39,324.39,324.39,320.72,320.72,320.72,320.72,320.72,317.87,317.87,317.87,315.42,315.42,315.01,315.01,314.60,314.60,314.60,314.20,313.79,313.79,313.38,313.38,313.38,313.38,312.97,312.97,328.88,328.88,326.43,326.43,326.43,326.43,326.43,326.43,326.43,326.43,326.43,326.43,323.58,323.58,323.58,323.58,319.50,319.50,319.50,319.50,319.50,319.50,319.50,319.50,319.50,319.50,319.50,319.50,319.50,319.50,319.50,319.50,319.50,319.50,319.50,319.50,319.50,319.50,319.50,319.50,319.50,319.50,319.50,323.58,323.58,323.58,323.58,326.43,326.43,326.43,326.43,328.88,328.88,328.88,331.33,331.33,333.77,333.77,333.77,339.07,339.07,349.27,349.27,359.06,366.81,366.81,373.33,381.90,381.90,391.69,385.57,385.57,377.00,369.66,369.66,362.73,357.84,357.84,350.49,346.42,346.42,337.85,334.18,334.18,334.18,331.33,331.33,331.33,331.33,327.25,327.25,331.33,331.33,331.33,331.33,331.33,334.18,334.18,337.85,337.85,337.85,341.52,341.52,341.52,346.42,346.42,346.42,346.42,346.42,346.42,341.52,341.52,337.85,337.85,337.85,337.85,337.85,334.18,334.18,334.18,334.18,334.18,337.85,337.85,337.85,337.85,334.18
319.50,314.60,314.60,314.20,314.20,314.20,314.20,314.20,314.20,314.20,314.20,314.60,314.60,315.01,315.01,315.01,315.42,315.42,315.42,317.87,317.87,317.87,317.87,317.87,317.87,317.87,317.87,317.87,317.87,320.72,320.72,320.72,320.72,320.72,320.72,320.72,320.72,320.72,320.72,320.72,324.39,324.39,324.39,324.39,324.39,324.39,324.39,324.39,324.39,324.39,324.39,324.39,324.39,320.72,320.72,320.72,320.72,320.72,320.72,320.72,320.72,320.72,320.72,320.72,320.72,320.72,320.72,320.72,320.72,320.72,320.72,320.72,320.72,320.72,320.72,320.72,320.72,320.72,320.72,320.72,320.72,320.72,320.72,320.72,320.72,320.72,320.72,320.72,320.72,320.72,320.72,320.72,320.72,324.39,324.39,324.39,324.39,324.39,324.39,324.39,324.39,320.72,320.72,320.72,320.72,320.72,320.72,320.72,320.72,320.72,320.72,320.72,320.72,320.72,320.72,320.72,320.72,320.72,320.72,320.72,320.72,320.72,320.72,320.72,320.72,320.72,320.72,320.72,320.72,320.72,320.72,324.39,324.39,324.39,324.39,324.39,324.39,324.39,324.39,324.39,324.39,324.39,324.39,324.39,324.39,324.39,324.39,324.39,324.39,324.39,324.39,324.39,327.25,327.25,327.25,327.25,327.25,327.25,327.25,327.25,327.25,324.39,324.39,324.39,324.39,324.39,324.39,324.39,320.72,320.72,320.72,320.72,320.72,320.72,320.72,320.72,320.72,320.72,320.72,320.72,320.72,320.72,320.72,320.72,320.72,320.72,320.72,320.72,320.72,320.72,320.72,320.72,320.72,324.39,324.39,324.39,324.39,324.39,324.39,324.39,324.39,324.39,324.39,324.39,324.39,324.39,324.39,324.39,324.39,324.39,324.39,324.39,324.39,324.39,324.39,324.39,324.39,324.39,324.39,324.39,324.39,320.72,320.72,320.72,320.72,320.72,320.72,320.72,320.72,320.72,320.72,320.72,320.72,324.39,320.72,320.72,320.72,320.72,320.72,320.72,320.72,320.72,320.72,320.72,320.72,320.72,324.39,324.39,324.39,324.39,324.39,324.39,324.39,324.39,324.39,324.39,324.39,324.39,324.39,324.39,324.39,324.39,324.39,324.39,324.39,324.39,324.39,324.39,324.39,324.39,324.39,324.39,324.39,324.39,324.39,324.39,324.39,320.72,320.72,320.72,320.72,317.87,317.87,315.42,315.42,315.01,315.01,315.01,314.60,314.60,314.20,313.79,313.79,313.79,313.38,313.38,313.38,312.97,312.97,326.43,326.43,326.43,326.43,326.43,326.43,326.43,326.43,326.43,326.43,326.43,323.58,323.58,323.58,323.58,323.58,319.50,319.50,319.50,319.50,319.50,319.50,319.50,319.50,319.50,319.50,319.50,319.50,319.50,319.50,319.50,319.50,319.50,319.50,319.50,319.50,319.50,319.50,319.50,319.50,319.50,319.50,319.50,323.58,323.58,323.58,323.58,326.43,326.43,326.43,326.43,328.88,328.88,328.88,331.33,331.33,333.77,333.77,333.77,339.07,339.07,349.27,349.27,359.06,366.81,366.81,373.33,381.90,381.90,391.69,385.57,385.57,377.00,369.66,369.66,362.73,357.84,357.84,350.49,346.42,346.42,337.85,334.18,334.18,334.18,331.33,331.33,331.33,331.33,327.25,327.25,331.33,331.33,331.33,331.33,331.33,334.18,334.18,337.85,337.85,337.85,341.52,341.52,341.52,346.42,346.42,346.42,346.42,346.42,346.42,341.52,341.52,337.85,337.85,337.85,337.85,337.85,334.18,334.18,334.18,334.18,334.18,337.85,337.85,337.85,337.85,334.18
315.83,314.60,314.20,314.20,314.20,314.20,314.20,314.20,314.20,314.20,314.20,314.60,314.60,314.60,315.01,315.01,315.42,315.42,315.42,315.42,317.87,317.87,317.87,317.87,317.87,317.87,317.87,320.72,320.72,320.72,320.72,320.72,320.72,320.72,320.72,320.72,320.72,320.72,320.72,320.72,324.39,324.39,324.39,324.39,324.39,324.39,324.39,324.39,324.39,324.39,324.39,324.39,324.39,320.72,320.72,320.72,320.72,320.72,320.72,320.72,320.72,320.72,320.72,320.72,320.72,320.72,320.72,320.72,320.72,320.72,320.72,320.72,320.72,320.72,320.72,320.72,320.72,320.72,320.72,320.72,320.72,320.72,320.72,320.72,320.72,320.72,320.72,320.72,320.72,320.72,320.72,320.72,320.72,324.39,324.39,324.39,324.39,324.39,324.39,324.39,324.39,320.72,320.72,320.72,320.72,320.72,320.72,320.72,320.72,320.72,320.72,320.72,320.72,320.72,320.72,320.72,320.72,320.72,320.72,320.72,320.72,320.72,320.72,320.72,320.72,320.72,320.72,320.72,320.72,320.72,320.72,324.39,324.39,324.39,324.39,324.39,324.39,324.39,324.39,324.39,324.39,324.39,324.39,324.39,324.39,324.39,324.39,324.39,324.39,324.39,324.39,324.39,327.25,327.25,327.25,327.25,327.25,327.25,327.25,327.25,327.25,327.25,324.39,324.39,324.39,324.39,324.39,324.39,324.39,320.72,320.72,320.72,320.72,320.72,320.72,320.72,320.72,320.72,320.72,320.72,320.72,320.72,320.72,320.72,320.72,320.72,320.72,320.72,320.72,320.72,324.39,324.39,324.39,324.39,324.39,324.39,324.39,324.39,324.39,324.39,324.39,324.39,324.39,324.39,324.39,324.39,324.39,324.39,324.39,324.39,324.39,324.39,324.39,324.39,324.39,324.39,324.39,324.39,324.39,324.39,324.39,324.39,324.39,324.39,324.39,324.39,324.39,324.39,324.39,324.39,324.39,324.39,324.39,324.39,324.39,324.39,324.39,324.39,324.39,324.39,324.39,324.39,324.39,324.39,324.39,324.39,324.39,324.39,324.39,324.39,324.39,327.25,327.25,327.25,327.25,327.25,327.25,327.25,327.25,327.25,327.25,327.25,327.25,327.25,324.39,324.39,324.39,324.39,324.39,324.39,324.39,324.39,324.39,324.39,324.39,324.39,324.39,324.39,320.72,320.72,320.72,317.87,317.87,317.87,315.42,315.01,315.01,315.01,314.60,314.60,314.20,313.79,313.79,313.79,313.38,313.38,313.38,312.97,312.97,326.43,326.43,326.43,326.43,326.43,326.43,323.58,323.58,323.58,323.58,323.58,323.58,323.58,323.58,323.58,319.50,319.50,319.50,319.50,319.50,319.50,319.50,319.50,319.50,319.50,319.50,319.50,319.50,319.50,319.50,319.50,319.50,319.50,319.50,319.50,319.50,319.50,319.50,319.50,319.50,319.50,319.50,323.58,323.58,323.58,323.58,323.58,326.43,326.43,326.43,326.43,328.88,328.88,328.88,331.33,331.33,333.77,333.77,333.77,339.07,339.07,349.27,349.27,359.06,366.81,366.81,373.33,381.90,381.90,391.69,385.57,385.57,377.00,369.66,369.66,362.73,357.84,357.84,350.49,341.52,341.52,337.85,334.18,334.18,334.18,331.33,331.33,331.33,331.33,331.33,331.33,331.33,331.33,331.33,331.33,331.33,334.18,334.18,337.85,337.85,337.85,341.52,346.42,346.42,346.42,346.42,346.42,346.42,346.42,346.42,341.52,341.52,341.52,341.52,337.85,337.85,337.85,337.85,337.85,337.85,337.85,337.85,337.85,337.85,337.85,337.85,337.85
315.83,314.60,314.60,314.20,314.60,314.20,314.20,314.20,314.20,314.20,314.20,314.60,315.01,315.01,315.01,315.01,315.42,315.42,315.42,315.42,317.87,317.87,317.87,317.87,317.87,317.87,317.87,320.72,320.72,320.72,320.72,320.72,320.72,320.72,320.72,320.72,320.72,320.72,320.72,320.72,324.39,324.39,324.39,324.39,324.39,324.39,324.39,324.39,324.39,324.39,324.39,324.39,324.39,320.72,320.72,320.72,320.72,320.72,320.72,320.72,320.72,320.72,320.72,320.72,320.72,320.72,320.72,320.72,320.72,320.72,320.72,320.72,320.72,320.72,320.72,320.72,320.72,320.72,320.72,320.72,320.72,320.72,320.72,320.72,320.72,320.72,320.72,320.72,324.39,324.39,324.39,324.39,324.39,324.39,324.39,324.39,324.39,324.39,324.39,324.39,324.39,324.39,324.39,324.39,324.39,320.72,320.72,320.72,320.72,320.72,320.72,320.72,320.72,320.72,320.72,320.72,320.72,320.72,320.72,320.72,320.72,320.72,320.72,320.72,320.72,320.72,320.72,324.39,324.39,324.39,324.39,324.39,324.39,324.39,324.39,324.39,324.39,324.39,324.39,324.39,324.39,324.39,324.39,324.39,324.39,324.39,324.39,324.39,324.39,324.39,324.39,324.39,327.25,327.25,327.25,327.25,327.25,327.25,327.25,327.25,327.25,324.39,324.39,324.39,324.39,324.39,324.39,324.39,324.39,320.72,320.72,320.72,320.72,320.72,320.72,320.72,320.72,320.72,320.72,320.72,320.72,320.72,320.72,320.72,320.72,320.72,320.72,320.72,320.72,320.72,324.39,324.39,324.39,324.39,324.39,324.39,324.39,324.39,324.39,324.39,324.39,324.39,324.39,324.39,324.39,324.39,324.39,324.39,324.39,324.39,324.39,324.39,324.39,324.39,324.39,324.39,324.39,324.39,324.39,324.39,324.39,324.39,324.39,324.39,324.39,324.39,324.39,324.39,324.39,324.39,324.39,324.39,324.39,324.39,324.39,324.39,324.39,324.39,324.39,324.39,324.39,324.39,324.39,324.39,324.39,324.39,324.39,324.39,324.39,324.39,324.39,327.25,327.25,327.25,327.25,327.25,327.25,327.25,327.25,327.25,327.25,327.25,327.25,327.25,324.39,324.39,324.39,324.39,327.25,327.25,327.25,327.25,327.25,324.39,324.39,324.39,324.39,324.39,320.72,320.72,320.72,320.72,317.87,317.87,315.42,315.42,315.42,315.01,314.60,314.60,314.20,313.79,313.79,313.79,313.38,313.38,313.38,312.97,312.97,326.43,326.43,323.58,323.58,323.58,323.58,323.58,323.58,323.58,323.58,323.58,323.58,323.58,323.58,323.58,319.50,319.50,319.50,319.50,319.50,319.50,319.50,319.50,319.50,319.50,319.50,319.50,319.50,319.50,319.50,319.50,319.50,319.50,319.50,319.50,319.50,319.50,319.50,319.50,319.50,319.50,319.50,323.58,323.58,323.58,323.58,323.58,326.43,326.43,326.43,326.43,328.88,328.88,328.88,331.33,331.33,333.77,333.77,333.77,339.07,339.07,349.27,349.27,359.06,366.81,366.81,373.33,381.90,381.90,391.69,385.57,385.57,377.00,369.66,369.66,362.73,357.84,357.84,350.49,341.52,341.52,337.85,334.18,334.18,334.18,331.33,331.33,331.33,331.33,331.33,331.33,331.33,331.33,331.33,331.33,331.33,334.18,334.18,337.85,337.85,337.85,341.52,341.52,341.52,346.42,346.42,346.42,346.42,346.42,346.42,341.52,341.52,341.52,341.52,337.85,337.85,337.85,337.85,337.85,337.85,337.85,337.85,337.85,337.85,337.85,337.85,337.85
316.64,314.20,314.60,314.20,314.20,314.20,314.20,314.20,314.20,314.20,314.60,314.60,314.60,315.01,315.01,315.01,315.42,315.42,315.42,317.87,317.87,317.87,317.87,317.87,317.87,317.87,320.72,320.72,320.72,320.72,320.72,320.72,320.72,320.72,320.72,320.72,320.72,324.39,324.39,324.39,324.39,324.39,324.39,324.39,324.39,324.39,324.39,324.39,324.39,324.39,324.39,324.39,324.39,324.39,320.72,320.72,320.72,320.72,320.72,320.72,320.72,320.72,320.72,320.72,320.72,320.72,320.72,320.72,320.72,320.72,320.72,320.72,320.72,320.72,320.72,320.72,320.72,320.72,320.72,320.72,320.72,320.72,320.72,324.39,324.39,324.39,324.39,324.39,324.39,324.39,324.39,324.39,324.39,324.39,324.39,324.39,324.39,324.39,324.39,324.39,324.39,324.39,324.39,324.39,324.39,324.39,324.39,324.39,324.39,324.39,324.39,324.39,320.72,320.72,320.72,320.72,320.72,324.39,324.39,324.39,324.39,324.39,324.39,324.39,324.39,324.39,324.39,324.39,324.39,324.39,324.39,324.39,324.39,324.39,324.39,324.39,324.39,324.39,324.39,324.39,324.39,324.39,324.39,324.39,324.39,324.39,324.39,324.39,324.39,324.39,324.39,327.25,327.25,327.25,327.25,327.25,327.25,327.25,327.25,327.25,327.25,324.39,324.39,324.39,324.39,324.39,324.39,324.39,324.39,324.39,324.39,320.72,320.72,320.72,320.72,320.72,320.72,320.72,320.72,320.72,320.72,320.72,320.72,320.72,320.72,320.72,320.72,324.39,324.39,324.39,324.39,324.39,324.39,324.39,324.39,324.39,324.39,324.39,324.39,324.39,324.39,324.39,324.39,324.39,324.39,324.39,324.39,324.39,324.39,324.39,324.39,324.39,324.39,324.39,324.39,324.39,324.39,324.39,324.39,324.39,324.39,324.39,324.39,324.39,324.39,324.39,324.39,324.39,324.39,324.39,324.39,324.39,324.39,324.39,324.39,324.39,324.39,324.39,324.39,324.39,324.39,324.39,324.39,324.39,324.39,324.39,324.39,324.39,324.39,324.39,327.25,327.25,327.25,327.25,327.25,327.25,327.25,327.25,327.25,327.25,327.25,327.25,327.25,327.25,327.25,327.25,327.25,327.25,327.25,327.25,327.25,327.25,327.25,324.39,324.39,324.39,324.39,324.39,320.72,320.72,320.72,320.72,317.87,317.87,315.42,315.42,315.42,315.01,314.60,314.60,314.20,313.79,313.79,313.79,313.38,313.38,313.38,312.97,312.97,326.43,326.43,323.58,323.58,323.58,323.58,323.58,323.58,323.58,323.58,323.58,323.58,323.58,323.58,323.58,319.50,319.50,319.50,319.50,319.50,319.50,319.50,319.50,319.50,319.50,319.50,319.50,319.50,319.50,319.50,319.50,319.50,319.50,319.50,319.50,319.50,319.50,319.50,319.50,319.50,319.50,319.50,323.58,323.58,323.58,323.58,323.58,326.43,326.43,326.43,326.43,328.88,328.88,328.88,331.33,331.33,333.77,333.77,339.07,339.07,349.27,349.27,349.27,359.06,366.81,366.81,373.33,381.90,381.90,391.69,385.57,385.57,377.00,369.66,369.66,362.73,357.84,357.84,350.49,341.52,341.52,337.85,334.18,334.18,334.18,331.33,331.33,331.33,331.33,331.33,331.33,331.33,331.33,331.33,331.33,331.33,334.18,334.18,337.85,337.85,337.85,341.52,341.52,341.52,346.42,346.42,346.42,346.42,346.42,346.42,341.52,341.52,341.52,341.52,337.85,337.85,337.85,337.85,337.85,337.85,337.85,337.85,337.85,337.85,337.85,337.85,337.85
317.05,314.20,314.60,314.20,314.20,314.20,314.20,314.20,315.01,314.20,314.20,314.60,314.60,315.01,315.01,315.01,315.01,315.01,315.42,315.42,317.87,317.87,317.87,317.87,317.87,317.87,320.72,320.72,320.72,320.72,320.72,320.72,320.72,320.72,320.72,320.72,320.72,320.72,324.39,324.39,324.39,324.39,324.39,324.39,324.39,324.39,324.39,324.39,324.39,324.39,324.39,324.39,324.39,324.39,320.72,320.72,320.72,320.72,320.72,320.72,320.72,320.72,320.72,320.72,320.72,320.72,320.72,320.72,320.72,320.72,320.72,320.72,320.72,320.72,320.72,320.72,320.72,320.72,320.72,320.72,320.72,320.72,320.72,324.39,324.39,324.39,324.39,324.39,324.39,324.39,324.39,324.39,324.39,324.39,324.39,324.39,324.39,324.39,324.39,324.39,324.39,324.39,324.39,324.39,324.39,324.39,324.39,324.39,324.39,324.39,324.39,324.39,324.39,324.39,324.39,324.39,324.39,324.39,324.39,324.39,324.39,324.39,324.39,324.39,324.39,324.39,324.39,324.39,324.39,324.39,324.39,324.39,324.39,324.39,324.39,324.39,324.39,324.39,324.39,324.39,324.39,324.39,324.39,324.39,324.39,324.39,324.39,324.39,324.39,327.25,327.25,327.25,327.25,327.25,327.25,327.25,327.25,327.25,327.25,327.25,327.25,324.39,324.39,324.39,324.39,324.39,324.39,324.39,324.39,324.39,324.39,324.39,324.39,324.39,324.39,320.72,320.72,320.72,320.72,320.72,320.72,320.72,320.72,324.39,324.39,324.39,324.39,324.39,324.39,324.39,324.39,324.39,324.39,324.39,324.39,324.39,324.39,324.39,324.39,324.39,324.39,324.39,324.39,324.39,324.39,324.39,324.39,324.39,324.39,324.39,324.39,324.39,324.39,324.39,324.39,324.39,324.39,324.39,324.39,324.39,324.39,324.39,324.39,324.39,324.39,324.39,324.39,324.39,324.39,324.39,324.39,324.39,324.39,324.39,324.39,324.39,324.39,324.39,324.39,324.39,324.39,324.39,324.39,324.39,324.39,324.39,324.39,327.25,327.25,327.25,327.25,327.25,327.25,327.25,327.25,327.25,327.25,327.25,331.33,331.33,331.33,327.25,327.25,327.25,327.25,327.25,327.25,327.25,327.25,327.25,327.25,327.25,327.25,327.25,324.39,324.39,324.39,324.39,320.72,320.72,320.72,320.72,317.87,317.87,315.42,315.42,315.42,315.01,314.60,314.60,314.20,313.79,313.79,313.79,313.38,313.38,313.38,312.97,312.97,326.43,326.43,323.58,323.58,323.58,323.58,323.58,323.58,323.58,323.58,323.58,323.58,323.58,323.58,323.58,319.50,319.50,319.50,319.50,319.50,319.50,319.50,319.50,319.50,319.50,319.50,319.50,319.50,319.50,319.50,319.50,319.50,319.50,319.50,319.50,319.50,319.50,319.50,319.50,319.50,319.50,319.50,319.50,323.58,323.58,323.58,323.58,326.43,326.43,326.43,326.43,328.88,328.88,328.88,331.33,331.33,333.77,333.77,339.07,339.07,349.27,359.06,359.06,366.81,366.81,366.81,373.33,381.90,381.90,391.69,379.86,379.86,372.52,365.58,365.58,362.73,354.16,354.16,346.42,341.52,341.52,337.85,334.18,334.18,334.18,331.33,331.33,331.33,327.25,327.25,331.33,331.33,331.33,331.33,331.33,331.33,331.33,334.18,334.18,334.18,337.85,341.52,341.52,341.52,346.42,346.42,346.42,346.42,346.42,346.42,341.52,341.52,341.52,341.52,337.85,337.85,337.85,337.85,337.85,337.85,337.85,337.85,337.85,337.85,337.85,337.85,337.85
317.05,315.83,314.20,315.01,314.20,315.01,314.20,314.20,314.20,314.20,314.20,314.20,314.60,314.60,314.60,315.01,315.01,315.01,315.42,315.42,317.87,317.87,317.87,317.87,320.72,320.72,320.72,320.72,320.72,320.72,320.72,320.72,320.72,320.72,320.72,320.72,320.72,320.72,324.39,324.39,324.39,324.39,324.39,324.39,324.39,324.39,324.39,324.39,324.39,324.39,324.39,324.39,324.39,324.39,324.39,324.39,320.72,320.72,320.72,320.72,320.72,320.72,320.72,320.72,320.72,320.72,320.72,320.72,320.72,320.72,320.72,320.72,320.72,320.72,320.72,320.72,320.72,320.72,320.72,320.72,320.72,320.72,324.39,324.39,324.39,324.39,324.39,324.39,324.39,324.39,324.39,324.39,324.39,324.39,324.39,324.39,324.39,324.39,324.39,324.39,324.39,324.39,324.39,324.39,324.39,324.39,324.39,324.39,324.39,324.39,324.39,324.39,324.39,324.39,324.39,324.39,324.39,324.39,324.39,324.39,324.39,324.39,324.39,324.39,324.39,324.39,324.39,324.39,324.39,324.39,324.39,324.39,324.39,324.39,324.39,324.39,324.39,324.39,324.39,324.39,324.39,324.39,324.39,324.39,324.39,324.39,324.39,324.39,324.39,327.25,327.25,327.25,327.25,327.25,327.25,327.25,327.25,327.25,327.25,327.25,327.25,324.39,324.39,324.39,324.39,324.39,324.39,324.39,324.39,324.39,324.39,324.39,324.39,324.39,324.39,320.72,320.72,320.72,320.72,320.72,320.72,320.72,320.72,324.39,324.39,324.39,324.39,324.39,324.39,324.39,324.39,324.39,324.39,324.39,324.39,324.39,324.39,324.39,324.39,324.39,324.39,324.39,324.39,324.39,324.39,324.39,324.39,324.39,324.39,324.39,324.39,327.25,327.25,327.25,327.25,327.25,327.25,327.25,327.25,327.25,327.25,324.39,324.39,324.39,324.39,324.39,324.39,324.39,327.25,327.25,327.25,327.25,327.25,327.25,327.25,327.25,327.25,327.25,324.39,324.39,327.25,327.25,327.25,327.25,327.25,327.25,327.25,327.25,327.25,327.25,327.25,327.25,327.25,327.25,327.25,327.25,327.25,327.25,331.33,331.33,331.33,331.33,331.33,331.33,327.25,327.25,327.25,327.25,327.25,327.25,327.25,327.25,327.25,327.25,327.25,324.39,324.39,324.39,324.39,324.39,320.72,320.72,317.87,317.87,317.87,315.42,315.42,315.01,314.60,314.60,314.20,314.20,314.20,313.79,313.38,313.38,315.83,326.43,326.43,326.43,326.43,323.58,323.58,323.58,323.58,323.58,323.58,323.58,323.58,323.58,323.58,323.58,323.58,323.58,319.50,319.50,319.50,319.50,319.50,319.50,319.50,319.50,319.50,319.50,319.50,319.50,319.50,319.50,319.50,319.50,319.50,319.50,319.50,319.50,319.50,319.50,319.50,319.50,319.50,319.50,319.50,319.50,323.58,323.58,323.58,323.58,326.43,326.43,326.43,326.43,328.88,328.88,328.88,331.33,331.33,331.33,333.77,339.07,339.07,349.27,359.06,359.06,366.81,366.81,366.81,373.33,391.69,391.69,391.69,379.86,379.86,372.52,365.58,365.58,362.73,354.16,354.16,346.42,341.52,341.52,337.85,334.18,331.33,331.33,331.33,331.33,331.33,327.25,327.25,327.25,327.25,327.25,327.25,331.33,331.33,331.33,334.18,334.18,334.18,337.85,337.85,341.52,341.52,346.42,346.42,346.42,346.42,346.42,346.42,341.52,341.52,341.52,341.52,337.85,337.85,337.85,337.85,337.85,337.85,337.85,337.85,337.85,341.52,341.52,341.52,346.42
317.87,317.05,315.01,314.20,314.20,314.20,314.20,314.20,314.20,314.20,314.20,314.20,314.60,314.60,314.60,315.01,315.01,315.01,315.42,315.42,317.87,317.87,317.87,317.87,320.72,320.72,320.72,320.72,320.72,320.72,320.72,320.72,320.72,320.72,320.72,320.72,320.72,320.72,324.39,324.39,324.39,324.39,324.39,324.39,324.39,324.39,324.39,324.39,324.39,324.39,324.39,324.39,324.39,324.39,324.39,324.39,324.39,324.39,320.72,320.72,320.72,320.72,320.72,320.72,324.39,324.39,324.39,324.39,324.39,324.39,324.39,324.39,324.39,320.72,320.72,320.72,324.39,324.39,324.39,324.39,324.39,324.39,324.39,324.39,324.39,324.39,324.39,324.39,324.39,324.39,324.39,324.39,324.39,324.39,324.39,324.39,324.39,324.39,324.39,324.39,324.39,324.39,324.39,324.39,324.39,324.39,324.39,324.39,324.39,324.39,324.39,324.39,324.39,324.39,324.39,324.39,324.39,324.39,324.39,324.39,324.39,324.39,324.39,324.39,324.39,324.39,324.39,324.39,324.39,324.39,324.39,324.39,324.39,324.39,324.39,324.39,324.39,324.39,324.39,324.39,324.39,324.39,324.39,324.39,324.39,324.39,324.39,324.39,324.39,327.25,327.25,327.25,327.25,327.25,327.25,327.25,327.25,327.25,327.25,327.25,327.25,327.25,327.25,327.25,324.39,324.39,324.39,324.39,324.39,324.39,324.39,324.39,324.39,324.39,324.39,324.39,324.39,324.39,324.39,324.39,324.39,324.39,324.39,324.39,324.39,324.39,324.39,324.39,324.39,324.39,324.39,324.39,324.39,324.39,324.39,324.39,324.39,324.39,324.39,324.39,324.39,324.39,324.39,324.39,324.39,324.39,324.39,324.39,324.39,324.39,324.39,327.25,327.25,327.25,327.25,327.25,327.25,327.25,327.25,327.25,327.25,324.39,324.39,324.39,324.39,324.39,324.39,324.39,327.25,327.25,327.25,327.25,327.25,327.25,327.25,327.25,327.25,327.25,324.39,324.39,327.25,327.25,327.25,327.25,327.25,327.25,327.25,327.25,327.25,327.25,327.25,327.25,327.25,327.25,327.25,327.25,327.25,327.25,331.33,331.33,331.33,331.33,331.33,331.33,327.25,327.25,327.25,327.25,327.25,327.25,327.25,327.25,327.25,327.25,327.25,324.39,324.39,324.39,324.39,324.39,320.72,320.72,317.87,317.87,317.87,315.42,315.42,315.01,314.60,314.60,314.20,314.20,314.20,313.79,313.38,313.38,317.46,326.43,326.43,326.43,326.43,323.58,326.43,326.43,326.43,326.43,326.43,323.58,323.58,323.58,323.58,323.58,323.58,323.58,323.58,323.58,319.50,319.50,319.50,319.50,319.50,319.50,319.50,319.50,319.50,319.50,319.50,319.50,319.50,319.50,319.50,319.50,319.50,319.50,319.50,319.50,319.50,319.50,319.50,319.50,319.50,319.50,323.58,323.58,323.58,323.58,326.43,326.43,326.43,326.43,328.88,328.88,328.88,331.33,331.33,331.33,333.77,339.07,339.07,339.07,359.06,359.06,359.06,366.81,366.81,373.33,391.69,391.69,391.69,379.86,379.86,372.52,365.58,365.58,362.73,354.16,354.16,346.42,341.52,341.52,337.85,334.18,331.33,331.33,331.33,331.33,331.33,327.25,327.25,327.25,327.25,327.25,327.25,331.33,331.33,331.33,334.18,334.18,334.18,337.85,337.85,341.52,341.52,346.42,346.42,346.42,346.42,346.42,346.42,346.42,341.52,341.52,341.52,341.52,337.85,337.85,337.85,337.85,337.85,337.85,337.85,337.85,341.52,346.42,346.42,346.42
318.68,317.46,314.60,314.20,314.60,314.20,314.20,314.20,314.20,314.20,314.20,314.20,314.60,314.60,314.60,314.60,315.01,315.01,315.01,315.42,317.87,317.87,317.87,317.87,320.72,320.72,320.72,320.72,320.72,320.72,320.72,320.72,320.72,320.72,320.72,320.72,320.72,320.72,324.39,324.39,324.39,324.39,324.39,324.39,324.39,324.39,324.39,324.39,324.39,324.39,324.39,324.39,324.39,324.39,324.39,324.39,324.39,324.39,324.39,324.39,324.39,324.39,324.39,324.39,324.39,324.39,324.39,324.39,324.39,324.39,324.39,324.39,324.39,324.39,324.39,324.39,324.39,324.39,324.39,324.39,324.39,324.39,324.39,324.39,324.39,324.39,324.39,324.39,324.39,324.39,324.39,324.39,324.39,324.39,324.39,324.39,324.39,324.39,324.39,324.39,324.39,324.39,324.39,324.39,324.39,324.39,324.39,324.39,324.39,324.39,324.39,324.39,324.39,324.39,324.39,324.39,324.39,324.39,324.39,324.39,324.39,324.39,324.39,324.39,324.39,324.39,324.39,327.25,327.25,327.25,327.25,327.25,327.25,327.25,324.39,324.39,324.39,324.39,324.39,324.39,324.39,324.39,324.39,324.39,324.39,324.39,324.39,324.39,324.39,327.25,327.25,327.25,327.25,327.25,327.25,327.25,327.25,327.25,327.25,327.25,327.25,327.25,327.25,327.25,327.25,327.25,327.25,327.25,327.25,324.39,324.39,324.39,324.39,324.39,324.39,324.39,324.39,324.39,324.39,324.39,324.39,324.39,324.39,324.39,324.39,324.39,324.39,324.39,324.39,324.39,324.39,324.39,324.39,324.39,324.39,324.39,324.39,324.39,324.39,324.39,324.39,324.39,324.39,324.39,324.39,327.25,327.25,327.25,327.25,327.25,327.25,327.25,327.25,327.25,327.25,327.25,327.25,327.25,327.25,327.25,327.25,327.25,327.25,327.25,327.25,327.25,327.25,327.25,327.25,327.25,327.25,327.25,327.25,327.25,327.25,327.25,327.25,327.25,327.25,327.25,327.25,327.25,327.25,327.25,327.25,327.25,327.25,327.25,327.25,327.25,327.25,327.25,327.25,327.25,327.25,327.25,327.25,331.33,331.33,331.33,331.33,331.33,331.33,331.33,331.33,331.33,331.33,327.25,327.25,327.25,327.25,327.25,327.25,327.25,327.25,327.25,327.25,324.39,324.39,324.39,320.72,320.72,317.87,317.87,317.87,315.42,315.42,315.01,314.60,314.60,314.60,314.20,314.20,313.79,313.79,313.79,318.27,326.43,326.43,326.43,326.43,326.43,326.43,326.43,326.43,326.43,326.43,326.43,323.58,323.58,323.58,323.58,323.58,323.58,323.58,323.58,323.58,323.58,319.50,319.50,319.50,319.50,319.50,319.50,319.50,319.50,319.50,319.50,319.50,319.50,319.50,319.50,319.50,319.50,319.50,319.50,319.50,319.50,319.50,319.50,319.50,319.50,323.58,323.58,323.58,323.58,326.43,326.43,326.43,326.43,328.88,328.88,328.88,331.33,331.33,331.33,333.77,339.07,339.07,339.07,359.06,359.06,359.06,366.81,366.81,381.90,391.69,391.69,385.57,377.00,377.00,372.52,365.58,365.58,357.84,354.16,354.16,346.42,341.52,341.52,334.18,334.18,331.33,331.33,331.33,331.33,331.33,327.25,327.25,327.25,327.25,327.25,327.25,327.25,327.25,331.33,331.33,334.18,334.18,337.85,337.85,337.85,337.85,341.52,341.52,346.42,346.42,346.42,346.42,341.52,341.52,341.52,341.52,337.85,337.85,337.85,337.85,337.85,337.85,337.85,337.85,337.85,341.52,346.42,346.42,346.42
319.91,318.68,315.83,315.01,314.20,315.01,314.20,314.60,314.20,314.20,314.20,314.20,314.20,314.60,314.60,314.60,315.01,315.01,315.01,315.42,317.87,317.87,317.87,320.72,320.72,320.72,320.72,320.72,320.72,320.72,320.72,320.72,320.72,320.72,320.72,320.72,320.72,320.72,320.72,320.72,324.39,324.39,324.39,324.39,324.39,324.39,324.39,324.39,324.39,324.39,324.39,324.39,324.39,324.39,324.39,324.39,324.39,324.39,324.39,324.39,324.39,324.39,324.39,324.39,324.39,324.39,324.39,324.39,324.39,324.39,324.39,324.39,324.39,324.39,324.39,324.39,324.39,324.39,324.39,324.39,324.39,324.39,324.39,324.39,324.39,324.39,324.39,324.39,324.39,324.39,324.39,324.39,324.39,324.39,324.39,324.39,324.39,324.39,324.39,324.39,324.39,324.39,324.39,324.39,324.39,324.39,324.39,324.39,324.39,324.39,324.39,324.39,324.39,324.39,324.39,324.39,324.39,324.39,324.39,324.39,324.39,324.39,324.39,324.39,324.39,324.39,324.39,327.25,327.25,327.25,327.25,327.25,327.25,327.25,324.39,324.39,324.39,324.39,324.39,324.39,324.39,324.39,324.39,324.39,324.39,324.39,324.39,324.39,324.39,327.25,327.25,327.25,327.25,327.25,327.25,327.25,327.25,327.25,327.25,327.25,327.25,327.25,327.25,327.25,327.25,327.25,327.25,327.25,327.25,327.25,327.25,327.25,324.39,324.39,324.39,324.39,324.39,324.39,324.39,324.39,324.39,324.39,324.39,324.39,324.39,324.39,324.39,324.39,324.39,324.39,324.39,324.39,324.39,324.39,324.39,324.39,324.39,324.39,324.39,324.39,324.39,324.39,324.39,324.39,324.39,327.25,327.25,327.25,327.25,327.25,327.25,327.25,327.25,327.25,327.25,327.25,327.25,327.25,327.25,327.25,327.25,327.25,327.25,327.25,327.25,327.25,327.25,327.25,327.25,331.33,331.33,327.25,327.25,327.25,327.25,327.25,327.25,327.25,327.25,327.25,327.25,327.25,327.25,327.25,327.25,327.25,327.25,327.25,327.25,327.25,327.25,327.25,327.25,327.25,327.25,327.25,327.25,331.33,331.33,331.33,331.33,331.33,331.33,331.33,331.33,331.33,331.33,331.33,331.33,331.33,331.33,327.25,327.25,331.33,327.25,327.25,327.25,324.39,324.39,324.39,324.39,320.72,317.87,317.87,317.87,315.42,315.42,315.01,314.60,314.60,314.60,314.20,314.20,313.79,313.79,313.79,319.09,326.43,326.43,326.43,326.43,326.43,326.43,326.43,326.43,326.43,326.43,326.43,326.43,326.43,323.58,323.58,323.58,323.58,323.58,323.58,323.58,323.58,319.50,319.50,319.50,319.50,319.50,319.50,319.50,319.50,319.50,319.50,319.50,319.50,319.50,319.50,319.50,319.50,319.50,319.50,319.50,319.50,319.50,319.50,319.50,319.50,323.58,323.58,323.58,323.58,323.58,323.58,326.43,326.43,326.43,326.43,328.88,328.88,328.88,331.33,333.77,333.77,333.77,339.07,349.27,349.27,359.06,366.81,366.81,381.90,391.69,391.69,385.57,377.00,377.00,369.66,362.73,362.73,357.84,350.49,350.49,346.42,337.85,337.85,334.18,334.18,331.33,331.33,331.33,331.33,331.33,327.25,327.25,327.25,327.25,327.25,327.25,327.25,327.25,327.25,331.33,334.18,334.18,334.18,337.85,337.85,337.85,341.52,341.52,341.52,341.52,341.52,341.52,341.52,341.52,341.52,341.52,337.85,337.85,337.85,337.85,337.85,337.85,337.85,337.85,337.85,341.52,346.42,346.42,350.49
