389.29,380.56,380.56,380.56,380.56,389.29,389.29,389.29,389.29,389.29,389.29,389.29,389.29,389.29,389.29,389.29,389.29,389.29,389.29,389.29,389.29,389.29,389.29,380.56,380.56,380.56,380.56,380.56,380.56,380.56,380.56,380.56,380.56,380.56,380.56,380.56,380.56,380.56,380.56,380.56,380.56,380.56,380.56,380.56,380.56,380.56,380.56,380.56,380.56,380.56,380.56,380.56,380.56,380.56,380.56,380.56,380.56,380.56,380.56,380.56,380.56,380.56,380.56,380.56,380.56,389.29,389.29,389.29,385.55,385.55,373.50,363.94,363.94,350.22,350.22,335.67,322.78,322.78,319.04,314.05,314.05,313.64,313.22,313.22,312.81,312.39,312.39,311.56,311.56,311.56,311.56,311.56,311.56,311.56,311.56,311.56,312.39,312.39,312.39,312.81,312.81,313.22,313.22,313.64,313.64,314.05,314.05,314.05,314.05,313.64,313.64,313.22,313.22,313.22,312.81,312.81,312.81,312.39,312.39,312.39,311.56,311.56,311.56,311.56,311.56,312.39,312.39,312.39,312.39,312.81,313.22,313.22,314.05,316.96,321.12,321.12,324.86,331.51,339.41,339.41,350.22,363.94,367.68,370.59,370.59,373.50,377.24,377.24,380.15,385.55,391.79,391.79,389.29,389.29,380.56,380.56,380.56,380.56,380.56,380.56,373.91,373.91,373.91,380.56,380.56,380.56,373.91,373.91,373.91,373.91,373.91,373.91,373.91,373.91,373.91,373.91,373.91,373.91,373.91,373.91,373.91,373.91,373.91,373.91,373.91,373.91,373.91,373.91,373.91,380.56,380.56,380.56,380.56,380.56,380.56,380.56,380.56,380.56,380.56,380.56,380.56,380.56,380.56,380.56,380.56,380.56,380.56,380.56,380.56,380.56,389.29,389.29,389.29,389.29,389.29,389.29,389.29,389.29,389.29,389.29,389.29,389.29,389.29,380.56,380.56,380.56,380.56,380.56,373.91,373.91,373.91,373.91,366.02,373.91,373.91,373.91,373.91,373.91,373.91,373.91,373.91,373.91,373.91,373.91,380.56,380.56,380.56,380.56,380.56,380.56,380.56,380.56,380.56,380.56,389.29,389.29,389.29,389.29,389.29,389.29,389.29,389.29,389.29,389.29,389.29,389.29,389.29,389.29,389.29,389.29,389.29,389.29,389.29,389.29,389.29,389.29,389.29,389.29,389.29,380.56,380.56,380.56,389.29,389.29,389.29,380.56,380.56,380.56,389.29,389.29,380.56,389.29,389.29,389.29,389.29,389.29,389.29,389.29,389.29,389.29,389.29,389.29,389.29,389.29,389.29,389.29,389.29,389.29,389.29,389.29,389.29,389.29,389.29,389.29,389.29,389.29,389.29,389.29,389.29,389.29,389.29,389.29,389.29,389.29,389.29,389.29,389.29,389.29,389.29,389.29,389.29,389.29,389.29,389.29,389.29,389.29,389.29,389.29,389.29,389.29,389.29,389.29,391.79,391.79,391.79,391.79,391.79,391.79,391.79,391.79,389.29,389.29,389.29,389.29,389.29,389.29,389.29,389.29,389.29,389.29,389.29,389.29,389.29,389.29,389.29,389.29,389.29,389.29,389.29,389.29,389.29,389.29,389.29,389.29,389.29,389.29,391.79,391.79,391.79,389.29,389.29,389.29,389.29,389.29,389.29,389.29,389.29,389.29,389.29,389.29,389.29,389.29,389.29,389.29,389.29,389.29,389.29,389.29,389.29,389.29,389.29,389.29,389.29,389.29,389.29,389.29,389.29,389.29,389.29,389.29,389.29,389.29,389.29,389.29,389.29,389.29,389.29,389.29,389.29,389.29,389.29,389.29,389.29,389.29,389.29,389.29
389.29,380.56,380.56,380.56,380.56,389.29,389.29,389.29,389.29,389.29,389.29,389.29,389.29,389.29,389.29,389.29,389.29,389.29,389.29,389.29,389.29,389.29,389.29,380.56,380.56,380.56,380.56,380.56,380.56,380.56,380.56,380.56,380.56,380.56,380.56,380.56,380.56,380.56,380.56,380.56,380.56,380.56,380.56,380.56,380.56,380.56,380.56,380.56,380.56,380.56,380.56,380.56,380.56,380.56,380.56,380.56,380.56,380.56,380.56,380.56,380.56,380.56,380.56,380.56,380.56,380.56,380.56,389.29,385.55,385.55,377.24,363.94,363.94,350.22,350.22,335.67,335.67,326.11,321.12,316.96,316.96,313.64,313.64,313.64,312.81,312.39,312.39,311.56,311.56,311.56,311.56,311.56,311.56,311.56,311.56,311.56,312.39,312.39,312.39,312.81,312.81,313.22,313.22,313.64,313.64,314.05,314.05,314.05,314.05,313.64,313.64,313.22,313.22,313.22,312.81,312.81,312.81,312.39,312.39,312.39,311.56,311.56,311.56,312.39,312.39,312.39,312.39,312.39,312.39,312.81,313.22,313.22,314.05,316.96,321.12,321.12,324.86,331.51,339.41,339.41,350.22,363.94,367.68,370.59,370.59,373.50,377.24,377.24,380.15,385.55,391.79,391.79,389.29,389.29,380.56,380.56,380.56,380.56,380.56,380.56,373.91,373.91,373.91,380.56,380.56,380.56,380.56,373.91,373.91,373.91,373.91,373.91,373.91,373.91,373.91,373.91,373.91,373.91,373.91,373.91,373.91,373.91,373.91,373.91,373.91,373.91,373.91,373.91,373.91,380.56,380.56,380.56,380.56,380.56,380.56,380.56,380.56,380.56,380.56,380.56,380.56,380.56,380.56,380.56,380.56,380.56,380.56,380.56,380.56,380.56,389.29,389.29,389.29,389.29,389.29,389.29,389.29,389.29,389.29,389.29,389.29,389.29,389.29,380.56,380.56,380.56,380.56,380.56,373.91,373.91,373.91,373.91,366.02,373.91,373.91,373.91,373.91,373.91,373.91,373.91,373.91,373.91,373.91,380.56,380.56,380.56,380.56,380.56,380.56,380.56,380.56,380.56,380.56,380.56,389.29,389.29,389.29,389.29,389.29,389.29,389.29,389.29,389.29,389.29,389.29,389.29,389.29,389.29,389.29,389.29,389.29,389.29,389.29,389.29,389.29,389.29,389.29,389.29,389.29,380.56,380.56,380.56,389.29,389.29,389.29,380.56,380.56,380.56,389.29,389.29,389.29,389.29,389.29,389.29,389.29,389.29,389.29,389.29,389.29,389.29,389.29,389.29,389.29,389.29,389.29,389.29,389.29,389.29,389.29,389.29,389.29,389.29,389.29,389.29,389.29,389.29,389.29,389.29,389.29,389.29,389.29,389.29,389.29,389.29,389.29,389.29,389.29,389.29,389.29,389.29,389.29,389.29,389.29,389.29,389.29,389.29,389.29,389.29,389.29,389.29,389.29,389.29,389.29,389.29,389.29,389.29,389.29,389.29,389.29,389.29,391.79,391.79,391.79,391.79,389.29,389.29,389.29,389.29,389.29,389.29,389.29,389.29,389.29,389.29,389.29,389.29,389.29,389.29,389.29,389.29,389.29,389.29,389.29,389.29,389.29,389.29,389.29,389.29,389.29,389.29,389.29,389.29,389.29,389.29,389.29,389.29,389.29,389.29,389.29,389.29,389.29,389.29,389.29,389.29,389.29,389.29,389.29,389.29,389.29,389.29,389.29,389.29,389.29,389.29,389.29,389.29,389.29,389.29,389.29,389.29,389.29,389.29,389.29,389.29,389.29,389.29,389.29,389.29,389.29,389.29,389.29,389.29,389.29,389.29,389.29,389.29
389.29,380.56,380.56,380.56,380.56,389.29,389.29,389.29,389.29,389.29,389.29,389.29,389.29,389.29,389.29,389.29,389.29,389.29,389.29,389.29,389.29,389.29,389.29,380.56,380.56,380.56,380.56,380.56,380.56,380.56,380.56,380.56,380.56,380.56,380.56,380.56,380.56,380.56,380.56,380.56,380.56,380.56,380.56,380.56,380.56,380.56,380.56,380.56,380.56,380.56,380.56,380.56,380.56,380.56,380.56,380.56,380.56,380.56,380.56,380.56,380.56,380.56,380.56,380.56,380.56,380.56,380.56,389.29,385.55,385.55,377.24,363.94,363.94,350.22,350.22,335.67,327.77,327.77,321.12,316.96,316.96,313.64,313.64,313.22,312.81,312.39,312.39,311.56,311.56,311.56,311.56,311.56,311.56,311.56,311.56,311.56,312.39,312.39,312.39,312.81,312.81,313.22,313.22,313.64,313.64,314.05,314.05,314.05,314.05,313.64,313.64,313.22,313.22,313.22,312.81,312.81,312.81,312.39,312.39,312.39,311.56,311.56,311.56,312.39,312.39,312.39,312.39,312.39,312.39,312.81,313.22,313.22,313.64,316.96,321.12,321.12,324.86,331.51,339.41,339.41,350.22,363.94,367.68,367.68,370.59,373.50,377.24,377.24,380.15,385.55,391.79,391.79,389.29,389.29,380.56,380.56,380.56,380.56,380.56,373.91,373.91,373.91,373.91,380.56,380.56,380.56,380.56,373.91,373.91,373.91,373.91,373.91,373.91,373.91,373.91,373.91,373.91,373.91,373.91,373.91,373.91,373.91,373.91,373.91,373.91,373.91,373.91,373.91,373.91,380.56,380.56,380.56,380.56,380.56,380.56,380.56,380.56,380.56,380.56,380.56,380.56,380.56,380.56,380.56,380.56,380.56,380.56,380.56,380.56,380.56,380.56,380.56,380.56,380.56,380.56,380.56,380.56,389.29,389.29,389.29,380.56,380.56,380.56,380.56,380.56,380.56,380.56,380.56,373.91,373.91,373.91,373.91,373.91,373.91,373.91,373.91,373.91,373.91,373.91,373.91,373.91,373.91,373.91,380.56,380.56,380.56,380.56,380.56,380.56,380.56,380.56,380.56,380.56,380.56,389.29,389.29,389.29,389.29,389.29,389.29,389.29,389.29,389.29,389.29,389.29,389.29,389.29,389.29,389.29,389.29,389.29,389.29,389.29,389.29,389.29,389.29,389.29,389.29,380.56,380.56,380.56,380.56,380.56,380.56,380.56,380.56,380.56,380.56,380.56,389.29,389.29,389.29,389.29,389.29,389.29,389.29,389.29,389.29,389.29,389.29,389.29,389.29,389.29,389.29,389.29,389.29,389.29,389.29,389.29,389.29,389.29,389.29,389.29,389.29,389.29,389.29,389.29,389.29,389.29,389.29,389.29,389.29,389.29,389.29,389.29,389.29,389.29,389.29,389.29,389.29,389.29,389.29,389.29,389.29,389.29,389.29,389.29,389.29,389.29,389.29,389.29,389.29,389.29,389.29,389.29,389.29,389.29,389.29,389.29,389.29,391.79,391.79,391.79,391.79,389.29,389.29,389.29,389.29,389.29,389.29,389.29,389.29,389.29,389.29,389.29,389.29,389.29,389.29,389.29,389.29,389.29,389.29,389.29,389.29,389.29,389.29,389.29,389.29,389.29,389.29,389.29,389.29,389.29,389.29,389.29,389.29,389.29,389.29,389.29,389.29,389.29,389.29,389.29,389.29,389.29,389.29,389.29,389.29,389.29,389.29,389.29,389.29,389.29,389.29,389.29,389.29,389.29,389.29,389.29,389.29,389.29,389.29,389.29,389.29,389.29,389.29,389.29,389.29,389.29,389.29,389.29,389.29,389.29,389.29,389.29,389.29
380.56,380.56,380.56,380.56,380.56,389.29,389.29,389.29,389.29,389.29,389.29,389.29,389.29,389.29,389.29,389.29,389.29,389.29,389.29,389.29,389.29,380.56,380.56,380.56,380.56,380.56,380.56,380.56,380.56,380.56,380.56,380.56,380.56,380.56,380.56,380.56,380.56,380.56,380.56,380.56,380.56,380.56,380.56,380.56,380.56,380.56,380.56,380.56,380.56,380.56,380.56,380.56,380.56,380.56,380.56,380.56,380.56,380.56,380.56,373.91,380.56,380.56,380.56,380.56,380.56,380.56,380.56,389.29,391.79,391.79,377.24,370.59,370.59,353.96,353.96,345.23,327.77,327.77,321.12,316.96,316.96,313.64,313.22,313.22,312.81,312.39,312.39,311.56,311.56,311.56,311.56,311.56,311.56,311.56,311.56,311.56,312.39,312.39,312.39,312.81,312.81,313.22,313.22,313.64,313.64,314.05,314.05,314.05,314.05,313.64,313.64,313.22,313.22,313.22,312.81,312.81,312.81,312.39,312.39,312.39,312.39,312.39,312.39,312.39,312.39,312.39,312.39,312.39,312.39,312.81,313.22,313.22,313.64,316.96,321.12,321.12,324.86,331.51,339.41,339.41,350.22,358.12,367.68,367.68,370.59,373.50,377.24,377.24,380.15,385.55,391.79,391.79,389.29,389.29,380.56,380.56,380.56,373.91,373.91,373.91,373.91,373.91,373.91,380.56,380.56,380.56,373.91,373.91,373.91,373.91,373.91,373.91,373.91,373.91,373.91,373.91,373.91,366.02,366.02,366.02,366.02,366.02,366.02,373.91,373.91,373.91,373.91,373.91,373.91,380.56,380.56,380.56,380.56,380.56,380.56,380.56,380.56,380.56,380.56,380.56,380.56,380.56,380.56,380.56,380.56,380.56,380.56,380.56,380.56,380.56,380.56,380.56,380.56,380.56,380.56,380.56,380.56,380.56,380.56,380.56,380.56,380.56,380.56,380.56,380.56,380.56,380.56,373.91,373.91,373.91,373.91,373.91,373.91,373.91,373.91,373.91,373.91,373.91,373.91,373.91,373.91,373.91,373.91,380.56,380.56,380.56,380.56,380.56,380.56,380.56,380.56,380.56,380.56,380.56,380.56,380.56,389.29,389.29,389.29,389.29,389.29,389.29,389.29,389.29,389.29,389.29,389.29,389.29,389.29,389.29,389.29,389.29,389.29,389.29,389.29,389.29,389.29,389.29,380.56,380.56,380.56,380.56,380.56,380.56,380.56,380.56,380.56,380.56,380.56,380.56,380.56,389.29,389.29,389.29,389.29,389.29,389.29,389.29,389.29,389.29,389.29,389.29,389.29,389.29,389.29,389.29,389.29,389.29,389.29,389.29,389.29,389.29,389.29,389.29,389.29,389.29,389.29,389.29,389.29,389.29,389.29,389.29,389.29,389.29,389.29,389.29,389.29,389.29,389.29,389.29,389.29,389.29,389.29,389.29,389.29,389.29,389.29,389.29,389.29,389.29,389.29,389.29,389.29,389.29,389.29,389.29,389.29,389.29,389.29,389.29,389.29,389.29,389.29,389.29,389.29,389.29,389.29,389.29,389.29,389.29,389.29,389.29,389.29,389.29,389.29,389.29,389.29,389.29,389.29,389.29,389.29,389.29,389.29,389.29,389.29,389.29,389.29,389.29,389.29,389.29,389.29,389.29,389.29,389.29,389.29,389.29,389.29,389.29,389.29,389.29,389.29,389.29,389.29,389.29,389.29,389.29,389.29,389.29,389.29,389.29,389.29,389.29,389.29,389.29,389.29,389.29,389.29,389.29,389.29,389.29,389.29,389.29,389.29,389.29,389.29,389.29,389.29,389.29,389.29,389.29,389.29,389.29,389.29,389.29,389.29,389.29
389.29,389.29,380.56,380.56,380.56,389.29,389.29,389.29,389.29,389.29,389.29,389.29,389.29,389.29,389.29,389.29,389.29,389.29,389.29,380.56,380.56,380.56,380.56,380.56,380.56,380.56,380.56,380.56,380.56,380.56,380.56,380.56,380.56,380.56,380.56,380.56,380.56,380.56,380.56,380.56,380.56,380.56,380.56,380.56,380.56,380.56,380.56,380.56,380.56,380.56,380.56,380.56,380.56,380.56,380.56,380.56,373.91,380.56,380.56,373.91,380.56,380.56,380.56,380.56,380.56,380.56,380.56,389.29,391.79,391.79,380.15,370.59,370.59,358.12,358.12,345.23,327.77,327.77,321.12,316.96,316.96,313.64,313.22,313.22,312.81,312.39,312.39,311.56,311.56,311.56,311.56,311.56,311.56,311.56,311.56,311.56,312.39,312.39,312.39,312.81,312.81,313.22,313.64,313.64,313.64,314.05,314.05,314.05,314.05,313.64,313.64,313.64,313.22,313.22,313.22,312.81,312.81,312.39,312.39,312.39,312.39,312.39,312.39,312.39,312.39,312.39,312.39,312.39,312.39,312.81,313.22,313.22,313.64,316.96,321.12,321.12,324.86,331.51,339.41,339.41,350.22,358.12,367.68,367.68,370.59,373.50,377.24,377.24,380.15,385.55,391.79,391.79,389.29,389.29,380.56,380.56,380.56,373.91,373.91,373.91,373.91,373.91,373.91,373.91,373.91,373.91,373.91,373.91,373.91,373.91,373.91,373.91,373.91,373.91,373.91,373.91,373.91,366.02,366.02,366.02,366.02,366.02,366.02,366.02,366.02,373.91,373.91,373.91,373.91,373.91,380.56,380.56,380.56,380.56,380.56,380.56,380.56,380.56,380.56,380.56,380.56,380.56,380.56,380.56,380.56,380.56,380.56,380.56,380.56,380.56,380.56,380.56,380.56,380.56,380.56,380.56,380.56,380.56,380.56,380.56,380.56,380.56,373.91,380.56,380.56,380.56,380.56,373.91,373.91,373.91,373.91,373.91,373.91,373.91,373.91,373.91,373.91,373.91,373.91,373.91,380.56,380.56,380.56,380.56,380.56,380.56,380.56,380.56,380.56,380.56,380.56,380.56,380.56,380.56,380.56,380.56,389.29,389.29,389.29,389.29,389.29,389.29,389.29,389.29,389.29,389.29,389.29,389.29,389.29,389.29,389.29,389.29,389.29,389.29,389.29,389.29,389.29,389.29,380.56,380.56,380.56,380.56,380.56,380.56,380.56,380.56,380.56,380.56,380.56,380.56,380.56,389.29,389.29,389.29,389.29,389.29,389.29,389.29,389.29,389.29,389.29,389.29,389.29,389.29,389.29,389.29,389.29,389.29,389.29,389.29,389.29,389.29,389.29,389.29,389.29,389.29,389.29,389.29,389.29,389.29,389.29,389.29,389.29,389.29,389.29,389.29,389.29,389.29,389.29,389.29,389.29,389.29,389.29,389.29,389.29,389.29,389.29,389.29,389.29,389.29,389.29,389.29,389.29,389.29,389.29,389.29,389.29,389.29,389.29,389.29,389.29,389.29,389.29,389.29,389.29,389.29,389.29,389.29,389.29,389.29,389.29,389.29,389.29,389.29,389.29,389.29,389.29,389.29,389.29,389.29,389.29,389.29,389.29,389.29,389.29,389.29,389.29,389.29,389.29,389.29,389.29,389.29,389.29,389.29,389.29,389.29,389.29,389.29,389.29,389.29,389.29,389.29,389.29,389.29,389.29,389.29,389.29,389.29,389.29,380.56,380.56,380.56,389.29,389.29,389.29,389.29,389.29,389.29,389.29,389.29,389.29,389.29,389.29,389.29,389.29,389.29,389.29,389.29,389.29,389.29,389.29,389.29,389.29,389.29,389.29,389.29
389.29,389.29,380.56,380.56,380.56,389.29,389.29,389.29,389.29,389.29,389.29,389.29,389.29,389.29,389.29,389.29,389.29,389.29,380.56,380.56,380.56,380.56,380.56,380.56,380.56,380.56,380.56,380.56,380.56,380.56,380.56,380.56,380.56,380.56,380.56,380.56,380.56,380.56,373.91,373.91,380.56,380.56,380.56,380.56,380.56,380.56,380.56,380.56,380.56,380.56,380.56,380.56,380.56,380.56,380.56,380.56,380.56,380.56,380.56,373.91,380.56,380.56,380.56,380.56,380.56,380.56,380.56,389.29,391.79,391.79,380.15,370.59,370.59,358.12,358.12,345.23,327.77,327.77,321.12,316.96,316.96,313.64,313.22,313.22,312.39,312.39,312.39,311.56,311.56,311.56,311.56,311.56,311.56,311.56,311.56,311.56,312.39,312.39,312.39,312.81,312.81,313.22,313.64,313.64,313.64,314.05,314.05,314.05,314.05,313.64,313.64,313.64,313.22,313.22,312.81,312.81,312.81,312.39,312.39,312.39,312.39,312.39,312.39,312.39,312.39,312.39,312.39,312.39,312.39,312.81,313.22,313.22,313.64,316.96,319.04,319.04,322.78,331.51,339.41,339.41,350.22,358.12,367.68,367.68,370.59,373.50,377.24,377.24,380.15,385.55,391.79,391.79,389.29,389.29,380.56,380.56,380.56,373.91,373.91,373.91,373.91,373.91,373.91,373.91,373.91,380.56,380.56,380.56,380.56,380.56,380.56,373.91,373.91,373.91,373.91,373.91,373.91,366.02,366.02,366.02,366.02,366.02,366.02,366.02,366.02,373.91,373.91,373.91,373.91,373.91,380.56,380.56,380.56,380.56,380.56,380.56,380.56,380.56,380.56,380.56,380.56,380.56,380.56,380.56,380.56,380.56,380.56,380.56,380.56,380.56,380.56,380.56,380.56,380.56,380.56,380.56,380.56,380.56,380.56,380.56,380.56,380.56,373.91,373.91,373.91,373.91,373.91,373.91,373.91,373.91,373.91,373.91,373.91,373.91,373.91,373.91,373.91,373.91,380.56,380.56,380.56,380.56,380.56,380.56,380.56,380.56,380.56,380.56,380.56,380.56,380.56,380.56,380.56,380.56,380.56,380.56,380.56,380.56,389.29,389.29,389.29,380.56,380.56,380.56,389.29,389.29,389.29,389.29,389.29,389.29,389.29,389.29,389.29,389.29,389.29,389.29,389.29,389.29,380.56,380.56,380.56,380.56,380.56,380.56,380.56,380.56,380.56,380.56,380.56,380.56,380.56,380.56,389.29,389.29,389.29,389.29,389.29,389.29,389.29,389.29,389.29,389.29,389.29,389.29,389.29,389.29,389.29,389.29,389.29,389.29,389.29,389.29,389.29,389.29,389.29,389.29,389.29,389.29,389.29,389.29,389.29,389.29,389.29,389.29,389.29,389.29,389.29,389.29,389.29,389.29,389.29,389.29,389.29,389.29,389.29,389.29,389.29,389.29,389.29,389.29,389.29,389.29,389.29,389.29,389.29,389.29,389.29,389.29,389.29,389.29,389.29,389.29,389.29,389.29,389.29,389.29,389.29,389.29,389.29,389.29,389.29,389.29,389.29,389.29,389.29,389.29,389.29,389.29,389.29,389.29,389.29,389.29,389.29,389.29,389.29,389.29,389.29,389.29,389.29,389.29,389.29,389.29,389.29,389.29,389.29,389.29,389.29,389.29,389.29,389.29,389.29,389.29,389.29,389.29,389.29,380.56,380.56,380.56,380.56,380.56,380.56,380.56,380.56,380.56,380.56,380.56,380.56,389.29,389.29,389.29,389.29,389.29,389.29,389.29,389.29,389.29,389.29,389.29,389.29,389.29,389.29,389.29,389.29,389.29,389.29,389.29
389.29,389.29,389.29,389.29,389.29,389.29,389.29,389.29,389.29,389.29,389.29,389.29,389.29,389.29,389.29,389.29,389.29,389.29,380.56,380.56,380.56,380.56,380.56,380.56,380.56,380.56,380.56,380.56,380.56,380.56,380.56,380.56,380.56,380.56,380.56,380.56,380.56,380.56,373.91,373.91,380.56,380.56,380.56,380.56,380.56,380.56,380.56,380.56,380.56,380.56,380.56,380.56,380.56,380.56,380.56,380.56,380.56,380.56,373.91,373.91,373.91,373.91,373.91,373.91,380.56,380.56,380.56,389.29,389.29,389.29,385.55,373.50,373.50,363.94,350.22,345.23,335.67,335.67,322.78,316.96,316.96,313.64,313.22,313.22,312.39,312.39,312.39,311.56,311.56,311.56,311.56,311.56,311.56,311.56,311.56,311.56,312.39,312.39,312.81,312.81,312.81,313.22,313.64,313.64,313.64,314.05,314.05,314.05,314.05,313.64,313.64,313.64,313.22,313.22,312.81,312.81,312.81,312.39,312.39,312.39,312.39,312.39,312.39,312.39,312.39,312.39,312.39,312.39,312.39,312.81,313.22,313.22,313.64,316.96,319.04,319.04,322.78,331.51,339.41,339.41,350.22,358.12,367.68,367.68,370.59,373.50,377.24,377.24,380.15,385.55,391.79,391.79,389.29,389.29,380.56,380.56,380.56,373.91,373.91,373.91,373.91,373.91,373.91,373.91,373.91,380.56,380.56,380.56,380.56,380.56,380.56,373.91,373.91,373.91,373.91,373.91,373.91,366.02,366.02,366.02,366.02,366.02,366.02,366.02,366.02,373.91,373.91,373.91,373.91,373.91,373.91,373.91,380.56,380.56,380.56,380.56,380.56,380.56,380.56,380.56,380.56,380.56,380.56,380.56,380.56,380.56,380.56,380.56,380.56,380.56,380.56,380.56,380.56,380.56,380.56,380.56,380.56,380.56,380.56,380.56,380.56,373.91,373.91,373.91,373.91,373.91,373.91,373.91,373.91,373.91,373.91,373.91,373.91,373.91,373.91,373.91,380.56,380.56,380.56,380.56,380.56,380.56,380.56,380.56,380.56,380.56,380.56,380.56,380.56,380.56,380.56,380.56,380.56,380.56,380.56,380.56,380.56,380.56,380.56,380.56,380.56,380.56,380.56,380.56,380.56,389.29,389.29,389.29,389.29,389.29,389.29,389.29,389.29,389.29,389.29,389.29,380.56,380.56,380.56,380.56,380.56,380.56,380.56,380.56,380.56,380.56,380.56,380.56,380.56,380.56,380.56,380.56,380.56,380.56,380.56,389.29,389.29,389.29,389.29,389.29,389.29,389.29,389.29,389.29,389.29,389.29,389.29,389.29,389.29,389.29,389.29,389.29,389.29,389.29,389.29,389.29,389.29,389.29,389.29,389.29,389.29,389.29,389.29,389.29,389.29,389.29,389.29,389.29,389.29,389.29,389.29,389.29,389.29,389.29,389.29,389.29,389.29,389.29,389.29,389.29,389.29,389.29,389.29,389.29,389.29,389.29,389.29,389.29,389.29,389.29,389.29,389.29,389.29,389.29,389.29,389.29,389.29,389.29,389.29,389.29,389.29,389.29,389.29,389.29,389.29,389.29,389.29,389.29,389.29,389.29,389.29,389.29,389.29,389.29,389.29,389.29,389.29,389.29,389.29,389.29,389.29,389.29,389.29,389.29,389.29,389.29,389.29,389.29,389.29,389.29,389.29,380.56,380.56,380.56,380.56,380.56,380.56,380.56,380.56,380.56,380.56,380.56,380.56,380.56,380.56,380.56,380.56,380.56,389.29,389.29,389.29,389.29,389.29,389.29,389.29,389.29,389.29,389.29,389.29,389.29,389.29,389.29,389.29,389.29,389.29,389.29
389.29,389.29,389.29,389.29,389.29,389.29,389.29,389.29,389.29,389.29,389.29,389.29,380.56,380.56,380.56,380.56,380.56,380.56,380.56,380.56,380.56,380.56,380.56,380.56,380.56,380.56,380.56,380.56,380.56,380.56,380.56,380.56,380.56,373.91,373.91,373.91,373.91,373.91,373.91,373.91,373.91,373.91,373.91,373.91,373.91,373.91,373.91,373.91,380.56,380.56,380.56,380.56,380.56,373.91,373.91,373.91,373.91,373.91,373.91,373.91,373.91,373.91,373.91,373.91,380.56,380.56,380.56,380.56,389.29,389.29,385.55,377.24,377.24,367.68,350.22,350.22,339.41,339.41,324.86,319.04,319.04,313.64,313.22,313.22,312.81,312.39,312.39,311.56,311.56,311.56,311.56,311.56,311.56,311.56,311.56,311.56,312.39,312.39,312.81,312.81,312.81,313.22,313.64,314.05,314.05,314.05,314.05,314.05,314.05,313.64,313.64,313.64,313.22,313.22,312.81,312.81,312.81,312.39,312.39,312.39,312.39,312.39,312.39,312.39,312.39,312.39,312.39,312.39,312.39,312.81,313.22,313.22,313.64,316.96,319.04,319.04,322.78,331.51,339.41,339.41,350.22,358.12,367.68,367.68,370.59,373.50,377.24,377.24,380.15,385.55,391.79,391.79,389.29,389.29,380.56,380.56,373.91,373.91,373.91,373.91,373.91,373.91,373.91,373.91,373.91,380.56,380.56,380.56,380.56,380.56,380.56,373.91,373.91,373.91,373.91,373.91,373.91,366.02,366.02,366.02,366.02,366.02,366.02,366.02,366.02,373.91,373.91,373.91,373.91,373.91,373.91,373.91,373.91,373.91,373.91,373.91,373.91,373.91,373.91,373.91,380.56,380.56,380.56,380.56,380.56,380.56,380.56,380.56,380.56,380.56,380.56,380.56,380.56,380.56,373.91,373.91,373.91,373.91,373.91,373.91,373.91,373.91,373.91,373.91,373.91,373.91,373.91,373.91,373.91,373.91,373.91,373.91,373.91,373.91,373.91,373.91,380.56,380.56,380.56,380.56,380.56,380.56,380.56,380.56,380.56,380.56,380.56,380.56,380.56,380.56,380.56,380.56,380.56,380.56,380.56,380.56,380.56,380.56,380.56,380.56,380.56,380.56,380.56,380.56,380.56,380.56,380.56,380.56,380.56,380.56,380.56,389.29,389.29,389.29,389.29,389.29,380.56,380.56,380.56,380.56,380.56,380.56,380.56,380.56,380.56,380.56,380.56,380.56,380.56,380.56,380.56,380.56,380.56,380.56,380.56,389.29,389.29,389.29,389.29,389.29,389.29,389.29,389.29,389.29,389.29,389.29,389.29,389.29,389.29,389.29,389.29,389.29,389.29,389.29,389.29,389.29,389.29,389.29,389.29,389.29,389.29,389.29,389.29,389.29,389.29,389.29,389.29,389.29,389.29,389.29,389.29,389.29,389.29,389.29,389.29,389.29,389.29,389.29,389.29,389.29,389.29,389.29,389.29,389.29,389.29,389.29,389.29,389.29,389.29,389.29,389.29,389.29,389.29,389.29,389.29,389.29,389.29,389.29,389.29,389.29,389.29,389.29,389.29,389.29,389.29,389.29,389.29,389.29,389.29,389.29,389.29,389.29,389.29,389.29,389.29,389.29,389.29,389.29,389.29,389.29,389.29,389.29,389.29,389.29,389.29,389.29,389.29,389.29,389.29,389.29,389.29,380.56,380.56,380.56,380.56,380.56,380.56,380.56,380.56,380.56,380.56,380.56,380.56,380.56,380.56,380.56,380.56,380.56,389.29,389.29,389.29,389.29,389.29,389.29,389.29,389.29,389.29,389.29,389.29,389.29,389.29,389.29,389.29,389.29,389.29,389.29
389.29,389.29,389.29,389.29,389.29,389.29,389.29,389.29,389.29,380.56,380.56,380.56,380.56,380.56,380.56,380.56,380.56,380.56,380.56,380.56,380.56,380.56,380.56,380.56,380.56,380.56,380.56,380.56,380.56,380.56,380.56,380.56,373.91,373.91,373.91,373.91,373.91,373.91,373.91,373.91,373.91,373.91,373.91,373.91,373.91,373.91,373.91,373.91,373.91,373.91,373.91,373.91,373.91,373.91,373.91,373.91,373.91,373.91,373.91,373.91,373.91,373.91,373.91,373.91,380.56,380.56,380.56,380.56,389.29,389.29,389.29,383.47,376.82,365.60,354.38,347.73,340.24,334.84,326.94,320.71,317.80,315.30,313.64,313.64,312.81,312.39,312.39,311.56,311.56,311.56,311.56,311.56,311.56,311.56,311.56,312.39,312.39,312.39,312.81,313.22,313.22,313.22,313.64,314.05,314.05,316.96,316.96,316.96,314.05,314.05,314.05,313.64,313.22,313.22,312.81,312.81,312.81,312.39,312.39,312.39,312.39,312.39,312.39,312.39,312.39,312.39,312.39,312.39,312.39,312.81,313.22,313.22,313.64,316.96,319.04,319.04,322.78,331.51,339.41,339.41,350.22,358.12,367.68,367.68,370.59,373.50,377.24,377.24,380.15,385.55,391.79,391.79,389.29,389.29,380.56,380.56,380.56,373.91,373.91,373.91,373.91,373.91,380.56,380.56,380.56,380.56,380.56,380.56,380.56,380.56,380.56,380.56,380.56,373.91,373.91,373.91,373.91,366.02,366.02,366.02,366.02,366.02,366.02,366.02,366.02,373.91,373.91,373.91,373.91,373.91,373.91,373.91,373.91,373.91,373.91,373.91,373.91,373.91,373.91,373.91,380.56,380.56,380.56,380.56,380.56,380.56,380.56,380.56,380.56,380.56,380.56,380.56,380.56,380.56,373.91,373.91,373.91,373.91,373.91,373.91,373.91,373.91,373.91,373.91,373.91,373.91,380.56,380.56,373.91,373.91,373.91,373.91,373.91,380.56,380.56,380.56,380.56,380.56,380.56,380.56,380.56,389.29,389.29,389.29,389.29,389.29,389.29,389.29,389.29,380.56,380.56,380.56,380.56,380.56,380.56,380.56,380.56,380.56,380.56,380.56,380.56,380.56,380.56,380.56,380.56,380.56,380.56,380.56,380.56,380.56,380.56,389.29,389.29,389.29,389.29,389.29,389.29,389.29,380.56,380.56,380.56,380.56,380.56,380.56,380.56,380.56,380.56,380.56,380.56,380.56,380.56,380.56,380.56,380.56,380.56,389.29,389.29,389.29,389.29,389.29,389.29,389.29,389.29,389.29,389.29,389.29,389.29,389.29,389.29,389.29,389.29,389.29,389.29,389.29,389.29,389.29,389.29,389.29,389.29,389.29,389.29,389.29,389.29,389.29,389.29,389.29,389.29,389.29,389.29,389.29,389.29,389.29,389.29,389.29,389.29,389.29,389.29,389.29,389.29,389.29,389.29,389.29,389.29,389.29,389.29,389.29,389.29,389.29,389.29,389.29,389.29,389.29,389.29,389.29,389.29,389.29,389.29,389.29,389.29,389.29,389.29,389.29,389.29,389.29,389.29,389.29,389.29,389.29,389.29,389.29,389.29,389.29,389.29,389.29,389.29,389.29,389.29,389.29,389.29,389.29,389.29,389.29,389.29,389.29,389.29,389.29,389.29,389.29,389.29,389.29,389.29,380.56,380.56,380.56,380.56,380.56,380.56,380.56,380.56,380.56,380.56,380.56,380.56,380.56,380.56,380.56,380.56,380.56,380.56,389.29,389.29,389.29,389.29,389.29,389.29,389.29,389.29,389.29,389.29,389.29,389.29,389.29,389.29,389.29,389.29,389.29
389.29,389.29,389.29,389.29,389.29,389.29,389.29,389.29,389.29,380.56,380.56,380.56,380.56,380.56,380.56,380.56,380.56,380.56,380.56,380.56,380.56,380.56,380.56,380.56,380.56,380.56,380.56,380.56,380.56,380.56,380.56,380.56,373.91,373.91,373.91,373.91,373.91,373.91,373.91,373.91,373.91,373.91,373.91,373.91,373.91,373.91,373.91,373.91,373.91,373.91,373.91,373.91,373.91,373.91,373.91,373.91,373.91,373.91,373.91,373.91,373.91,373.91,373.91,373.91,380.56,380.56,380.56,380.56,389.29,389.29,389.29,384.31,381.40,370.17,356.87,348.14,340.66,334.42,327.36,321.95,317.80,315.30,313.64,313.22,312.39,312.39,312.39,311.56,311.56,311.56,311.56,311.56,311.56,311.56,311.56,312.39,312.39,312.39,312.81,313.22,313.22,313.22,313.64,314.05,314.05,316.96,316.96,316.96,314.05,314.05,314.05,313.64,313.22,313.22,312.81,312.81,312.81,312.39,312.39,312.39,312.39,312.39,312.39,312.39,312.39,312.39,312.39,312.39,312.39,312.81,313.22,313.22,313.64,316.96,321.12,321.12,322.78,331.51,339.41,339.41,350.22,358.12,367.68,367.68,370.59,373.50,377.24,377.24,380.15,385.55,391.79,391.79,389.29,389.29,380.56,380.56,380.56,380.56,380.56,373.91,373.91,373.91,380.56,380.56,380.56,380.56,380.56,380.56,380.56,380.56,380.56,380.56,380.56,373.91,373.91,373.91,373.91,373.91,366.02,366.02,366.02,366.02,366.02,366.02,366.02,366.02,366.02,366.02,366.02,373.91,373.91,373.91,373.91,373.91,373.91,373.91,373.91,373.91,373.91,373.91,373.91,373.91,373.91,380.56,380.56,380.56,380.56,380.56,380.56,380.56,380.56,380.56,380.56,380.56,373.91,373.91,373.91,373.91,373.91,373.91,373.91,373.91,373.91,373.91,373.91,373.91,380.56,380.56,373.91,373.91,373.91,380.56,380.56,380.56,380.56,380.56,380.56,380.56,380.56,380.56,389.29,389.29,389.29,389.29,389.29,389.29,389.29,389.29,389.29,389.29,389.29,389.29,380.56,380.56,380.56,380.56,380.56,380.56,380.56,380.56,380.56,380.56,380.56,380.56,380.56,380.56,380.56,380.56,380.56,380.56,380.56,389.29,389.29,389.29,389.29,389.29,389.29,389.29,389.29,389.29,389.29,389.29,389.29,380.56,380.56,380.56,380.56,380.56,380.56,380.56,380.56,380.56,380.56,380.56,380.56,389.29,389.29,389.29,389.29,389.29,389.29,389.29,389.29,389.29,389.29,389.29,389.29,389.29,389.29,389.29,389.29,389.29,389.29,389.29,389.29,389.29,389.29,389.29,389.29,389.29,389.29,389.29,389.29,389.29,389.29,389.29,389.29,389.29,389.29,389.29,389.29,389.29,389.29,389.29,389.29,389.29,389.29,389.29,389.29,389.29,389.29,389.29,389.29,389.29,389.29,389.29,389.29,389.29,389.29,389.29,389.29,389.29,389.29,389.29,389.29,389.29,389.29,389.29,389.29,389.29,389.29,389.29,389.29,389.29,389.29,389.29,389.29,389.29,389.29,389.29,389.29,389.29,389.29,389.29,389.29,389.29,389.29,389.29,389.29,389.29,389.29,389.29,389.29,389.29,389.29,389.29,389.29,389.29,389.29,389.29,389.29,380.56,380.56,380.56,380.56,380.56,380.56,380.56,380.56,380.56,380.56,380.56,380.56,380.56,380.56,380.56,380.56,380.56,380.56,389.29,389.29,389.29,389.29,389.29,389.29,389.29,389.29,389.29,389.29,389.29,389.29,389.29,389.29,389.29,389.29,389.29
389.29,389.29,389.29,389.29,389.29,389.29,389.29,389.29,380.56,380.56,380.56,380.56,380.56,380.56,380.56,380.56,380.56,380.56,380.56,380.56,380.56,380.56,380.56,380.56,380.56,380.56,380.56,380.56,380.56,373.91,373.91,373.91,373.91,373.91,373.91,373.91,373.91,373.91,373.91,373.91,373.91,373.91,373.91,373.91,373.91,373.91,373.91,373.91,373.91,373.91,373.91,373.91,373.91,373.91,373.91,373.91,373.91,373.91,373.91,373.91,373.91,373.91,373.91,373.91,373.91,380.56,380.56,380.56,380.56,385.55,387.22,386.38,383.06,375.58,362.27,350.22,341.91,334.84,328.19,321.54,317.38,314.47,312.81,312.81,312.39,312.39,312.39,312.39,311.56,311.56,311.56,311.56,311.56,311.56,311.56,312.39,312.39,312.39,312.81,313.22,313.22,313.64,314.05,316.96,316.96,316.96,316.96,316.96,314.05,314.05,314.05,313.64,313.22,313.22,312.81,312.81,312.81,312.39,312.39,312.39,312.39,312.39,312.39,312.39,312.39,312.39,312.39,312.39,312.39,312.81,313.22,313.22,313.64,316.96,319.04,319.04,322.78,331.51,339.41,339.41,350.22,358.12,367.68,367.68,370.59,373.50,377.24,377.24,380.15,385.55,391.79,391.79,389.29,389.29,380.56,380.56,380.56,380.56,380.56,380.56,380.56,380.56,380.56,380.56,380.56,380.56,380.56,380.56,380.56,380.56,380.56,380.56,380.56,380.56,373.91,373.91,373.91,373.91,366.02,366.02,366.02,366.02,366.02,366.02,366.02,366.02,366.02,366.02,366.02,366.02,366.02,366.02,373.91,373.91,373.91,373.91,373.91,373.91,366.02,373.91,373.91,373.91,373.91,373.91,373.91,373.91,380.56,380.56,380.56,380.56,380.56,373.91,373.91,373.91,373.91,373.91,373.91,373.91,373.91,373.91,373.91,373.91,373.91,373.91,373.91,373.91,373.91,373.91,373.91,373.91,373.91,380.56,380.56,380.56,380.56,380.56,380.56,380.56,380.56,380.56,389.29,389.29,389.29,389.29,389.29,389.29,389.29,389.29,389.29,389.29,389.29,389.29,380.56,380.56,380.56,380.56,380.56,380.56,380.56,380.56,380.56,380.56,380.56,380.56,380.56,380.56,380.56,380.56,380.56,380.56,380.56,389.29,389.29,389.29,389.29,389.29,389.29,389.29,389.29,389.29,389.29,389.29,389.29,380.56,380.56,380.56,380.56,380.56,380.56,380.56,380.56,380.56,380.56,380.56,380.56,389.29,389.29,389.29,389.29,389.29,389.29,389.29,389.29,389.29,389.29,389.29,389.29,389.29,389.29,389.29,389.29,389.29,389.29,389.29,389.29,389.29,389.29,389.29,389.29,389.29,389.29,389.29,389.29,389.29,389.29,389.29,389.29,389.29,389.29,389.29,389.29,389.29,389.29,389.29,389.29,389.29,389.29,389.29,389.29,389.29,389.29,389.29,389.29,389.29,389.29,389.29,389.29,389.29,389.29,389.29,389.29,389.29,389.29,389.29,389.29,389.29,389.29,389.29,389.29,389.29,389.29,389.29,389.29,389.29,389.29,389.29,389.29,389.29,389.29,389.29,389.29,389.29,389.29,389.29,389.29,389.29,389.29,389.29,389.29,389.29,389.29,389.29,389.29,389.29,389.29,389.29,389.29,389.29,389.29,389.29,389.29,380.56,380.56,380.56,380.56,380.56,380.56,380.56,380.56,380.56,380.56,380.56,380.56,380.56,380.56,380.56,380.56,380.56,389.29,389.29,389.29,389.29,389.29,389.29,389.29,389.29,389.29,389.29,389.29,389.29,389.29,389.29,389.29,389.29,389.29,389.29
389.29,389.29,389.29,389.29,389.29,380.56,380.56,380.56,380.56,380.56,380.56,380.56,380.56,380.56,380.56,380.56,380.56,380.56,380.56,380.56,380.56,380.56,380.56,380.56,380.56,380.56,380.56,380.56,373.91,373.91,373.91,373.91,373.91,373.91,373.91,373.91,373.91,373.91,373.91,373.91,373.91,373.91,373.91,373.91,373.91,373.91,373.91,373.91,373.91,373.91,373.91,373.91,373.91,373.91,373.91,373.91,373.91,373.91,373.91,373.91,373.91,373.91,373.91,373.91,373.91,380.56,380.56,380.56,380.56,383.06,385.55,384.72,380.56,376.82,369.76,358.53,349.39,341.07,331.10,324.86,318.21,314.05,312.81,312.81,312.81,312.39,312.39,312.39,311.56,311.56,311.56,311.56,311.56,311.56,312.39,312.39,312.39,312.39,312.81,313.22,313.22,313.64,314.05,316.96,316.96,316.96,316.96,316.96,316.96,314.05,314.05,313.64,313.22,313.22,312.81,312.81,312.81,312.39,312.39,312.39,312.39,312.39,312.39,312.39,312.39,312.39,312.39,312.39,312.39,312.81,313.22,313.22,313.64,316.96,319.04,319.04,322.78,331.51,339.41,339.41,350.22,358.12,367.68,367.68,370.59,373.50,377.24,377.24,385.55,385.55,391.79,391.79,389.29,389.29,380.56,380.56,380.56,380.56,380.56,380.56,380.56,380.56,380.56,380.56,380.56,380.56,380.56,380.56,380.56,380.56,380.56,380.56,380.56,380.56,373.91,373.91,373.91,373.91,366.02,366.02,366.02,366.02,366.02,366.02,366.02,366.02,366.02,366.02,366.02,366.02,366.02,366.02,366.02,373.91,373.91,373.91,373.91,373.91,366.02,373.91,373.91,373.91,373.91,373.91,373.91,373.91,380.56,380.56,380.56,380.56,380.56,373.91,373.91,373.91,373.91,373.91,373.91,373.91,373.91,373.91,373.91,373.91,373.91,373.91,373.91,373.91,373.91,373.91,373.91,380.56,380.56,380.56,380.56,380.56,380.56,380.56,380.56,380.56,380.56,389.29,389.29,389.29,389.29,389.29,389.29,389.29,389.29,389.29,389.29,389.29,389.29,389.29,380.56,389.29,389.29,380.56,380.56,380.56,380.56,380.56,380.56,380.56,380.56,380.56,380.56,380.56,380.56,380.56,380.56,380.56,380.56,389.29,389.29,389.29,389.29,389.29,389.29,389.29,389.29,389.29,389.29,389.29,389.29,389.29,389.29,380.56,380.56,380.56,380.56,389.29,389.29,389.29,380.56,380.56,380.56,389.29,389.29,389.29,389.29,389.29,389.29,389.29,389.29,389.29,389.29,389.29,389.29,389.29,389.29,389.29,389.29,389.29,389.29,389.29,389.29,389.29,389.29,389.29,389.29,389.29,389.29,389.29,389.29,389.29,389.29,389.29,389.29,389.29,389.29,389.29,389.29,389.29,389.29,389.29,389.29,389.29,389.29,389.29,389.29,389.29,389.29,389.29,389.29,389.29,389.29,389.29,389.29,389.29,389.29,389.29,389.29,389.29,389.29,389.29,389.29,389.29,389.29,389.29,389.29,389.29,389.29,389.29,389.29,389.29,389.29,389.29,389.29,389.29,389.29,389.29,389.29,389.29,389.29,389.29,389.29,389.29,389.29,389.29,389.29,389.29,389.29,389.29,389.29,389.29,389.29,389.29,389.29,389.29,389.29,389.29,389.29,389.29,380.56,380.56,380.56,380.56,380.56,380.56,380.56,380.56,380.56,380.56,380.56,380.56,380.56,380.56,380.56,389.29,389.29,389.29,389.29,389.29,389.29,389.29,389.29,389.29,389.29,389.29,389.29,389.29,389.29,389.29,389.29,389.29,389.29,389.29
380.56,380.56,380.56,380.56,380.56,380.56,380.56,380.56,380.56,380.56,380.56,380.56,380.56,380.56,380.56,380.56,380.56,380.56,380.56,380.56,380.56,380.56,380.56,380.56,380.56,380.56,380.56,380.56,373.91,373.91,373.91,373.91,373.91,373.91,373.91,373.91,373.91,373.91,373.91,373.91,373.91,373.91,373.91,373.91,373.91,373.91,373.91,373.91,373.91,373.91,373.91,373.91,373.91,373.91,373.91,373.91,373.91,373.91,373.91,373.91,373.91,373.91,373.91,373.91,380.56,380.56,380.56,380.56,380.56,383.47,385.55,385.55,383.89,377.24,370.17,361.03,351.47,341.07,333.18,327.77,319.87,314.89,312.81,312.39,312.81,312.39,312.39,312.39,311.56,311.56,311.56,311.56,311.56,311.56,312.39,312.39,312.39,312.39,312.81,313.22,313.22,313.64,314.05,316.96,316.96,316.96,316.96,316.96,316.96,314.05,314.05,313.64,313.22,313.22,312.81,312.81,312.81,312.39,312.39,312.39,312.39,312.39,312.39,312.39,312.39,312.39,312.39,312.39,312.39,312.39,312.39,312.81,313.64,314.05,314.05,319.04,322.78,331.51,339.41,339.41,350.22,358.12,367.68,367.68,370.59,373.50,377.24,377.24,385.55,385.55,391.79,391.79,389.29,389.29,380.56,380.56,380.56,380.56,380.56,380.56,380.56,380.56,380.56,380.56,380.56,380.56,380.56,380.56,380.56,380.56,380.56,380.56,380.56,380.56,373.91,373.91,373.91,373.91,366.02,366.02,366.02,366.02,366.02,366.02,366.02,366.02,366.02,366.02,366.02,366.02,366.02,366.02,366.02,366.02,366.02,366.02,366.02,366.02,366.02,366.02,373.91,373.91,373.91,373.91,373.91,373.91,373.91,380.56,380.56,380.56,373.91,373.91,373.91,373.91,373.91,373.91,373.91,373.91,373.91,373.91,373.91,373.91,373.91,373.91,373.91,373.91,373.91,380.56,380.56,380.56,380.56,380.56,380.56,380.56,380.56,380.56,380.56,380.56,380.56,389.29,389.29,389.29,389.29,389.29,389.29,389.29,389.29,389.29,389.29,389.29,389.29,389.29,389.29,389.29,389.29,380.56,380.56,380.56,380.56,380.56,380.56,380.56,380.56,380.56,380.56,380.56,380.56,380.56,380.56,380.56,380.56,389.29,389.29,389.29,389.29,389.29,389.29,389.29,389.29,389.29,389.29,389.29,389.29,389.29,389.29,389.29,389.29,389.29,380.56,389.29,389.29,389.29,380.56,380.56,380.56,380.56,380.56,389.29,389.29,389.29,389.29,389.29,389.29,389.29,389.29,389.29,389.29,389.29,389.29,389.29,389.29,389.29,389.29,389.29,389.29,389.29,389.29,389.29,389.29,389.29,389.29,389.29,389.29,389.29,389.29,389.29,389.29,389.29,389.29,389.29,389.29,389.29,389.29,389.29,389.29,389.29,389.29,389.29,389.29,389.29,389.29,389.29,389.29,389.29,389.29,389.29,389.29,389.29,389.29,389.29,389.29,389.29,389.29,389.29,389.29,389.29,389.29,389.29,389.29,389.29,389.29,389.29,389.29,389.29,389.29,389.29,389.29,389.29,389.29,389.29,389.29,389.29,389.29,389.29,389.29,389.29,389.29,389.29,391.79,391.79,391.79,391.79,389.29,389.29,389.29,389.29,389.29,389.29,389.29,389.29,389.29,389.29,380.56,380.56,380.56,380.56,380.56,380.56,380.56,380.56,380.56,380.56,380.56,380.56,380.56,389.29,389.29,389.29,389.29,389.29,389.29,389.29,389.29,389.29,389.29,389.29,389.29,389.29,389.29,389.29,389.29,389.29,389.29,389.29,389.29,389.29
380.56,380.56,380.56,380.56,380.56,380.56,380.56,380.56,380.56,380.56,380.56,380.56,380.56,380.56,380.56,380.56,380.56,380.56,380.56,380.56,380.56,380.56,380.56,380.56,380.56,380.56,380.56,380.56,373.91,373.91,373.91,373.91,373.91,373.91,373.91,373.91,373.91,373.91,373.91,373.91,373.91,373.91,373.91,373.91,373.91,373.91,373.91,373.91,373.91,373.91,373.91,373.91,373.91,373.91,373.91,373.91,373.91,373.91,373.91,373.91,373.91,373.91,373.91,373.91,380.56,380.56,380.56,389.29,389.29,387.63,386.38,384.72,383.89,379.32,370.59,358.53,349.80,343.15,336.50,328.19,322.37,319.04,316.96,314.05,313.22,312.39,312.81,312.39,311.56,311.56,311.56,311.56,311.56,311.56,312.39,312.39,312.81,312.81,313.22,313.64,314.05,314.05,316.96,319.04,319.04,319.04,316.96,316.96,316.96,314.05,314.05,313.64,313.22,313.22,312.81,312.39,312.39,312.39,312.39,312.39,312.39,311.56,311.56,312.39,312.39,312.39,312.39,312.39,312.39,312.39,312.39,312.81,313.64,314.05,314.05,319.04,322.78,331.51,339.41,339.41,350.22,358.12,367.68,367.68,370.59,373.50,377.24,377.24,380.15,385.55,391.79,391.79,389.29,389.29,380.56,380.56,380.56,380.56,380.56,380.56,380.56,380.56,380.56,380.56,380.56,380.56,380.56,380.56,380.56,380.56,380.56,380.56,380.56,380.56,373.91,373.91,373.91,373.91,366.02,366.02,366.02,366.02,366.02,366.02,366.02,366.02,366.02,366.02,366.02,366.02,366.02,366.02,366.02,366.02,366.02,366.02,366.02,366.02,366.02,366.02,366.02,366.02,373.91,373.91,373.91,373.91,373.91,373.91,373.91,373.91,373.91,373.91,373.91,373.91,373.91,373.91,373.91,373.91,373.91,373.91,373.91,373.91,373.91,373.91,373.91,373.91,373.91,380.56,380.56,380.56,380.56,380.56,380.56,380.56,380.56,380.56,380.56,389.29,389.29,389.29,389.29,389.29,389.29,389.29,389.29,389.29,389.29,389.29,389.29,389.29,389.29,389.29,389.29,389.29,389.29,380.56,380.56,380.56,380.56,380.56,380.56,380.56,380.56,380.56,380.56,380.56,380.56,380.56,380.56,380.56,380.56,389.29,389.29,389.29,389.29,389.29,389.29,389.29,389.29,389.29,389.29,389.29,389.29,389.29,389.29,389.29,389.29,389.29,380.56,380.56,380.56,380.56,380.56,380.56,380.56,380.56,380.56,380.56,380.56,389.29,389.29,389.29,389.29,389.29,389.29,389.29,389.29,389.29,389.29,389.29,389.29,389.29,389.29,389.29,389.29,389.29,389.29,389.29,389.29,389.29,389.29,389.29,389.29,389.29,389.29,389.29,389.29,389.29,389.29,389.29,389.29,389.29,389.29,389.29,389.29,389.29,389.29,389.29,389.29,389.29,389.29,389.29,389.29,389.29,389.29,389.29,389.29,389.29,389.29,389.29,389.29,389.29,389.29,389.29,389.29,389.29,389.29,389.29,389.29,389.29,389.29,389.29,389.29,389.29,389.29,389.29,389.29,389.29,389.29,389.29,389.29,389.29,389.29,389.29,389.29,389.29,389.29,389.29,391.79,391.79,391.79,391.79,389.29,389.29,389.29,389.29,389.29,389.29,389.29,389.29,389.29,389.29,380.56,380.56,380.56,380.56,380.56,380.56,380.56,380.56,380.56,380.56,380.56,380.56,380.56,389.29,389.29,389.29,389.29,389.29,389.29,389.29,389.29,389.29,389.29,389.29,389.29,389.29,389.29,389.29,389.29,389.29,389.29,389.29,389.29,389.29
380.56,380.56,380.56,380.56,380.56,380.56,380.56,380.56,380.56,380.56,380.56,380.56,380.56,380.56,380.56,380.56,380.56,380.56,380.56,380.56,380.56,380.56,380.56,373.91,373.91,373.91,373.91,373.91,373.91,373.91,373.91,373.91,373.91,373.91,373.91,373.91,373.91,373.91,373.91,373.91,373.91,373.91,373.91,373.91,373.91,373.91,373.91,373.91,373.91,373.91,373.91,373.91,373.91,373.91,373.91,373.91,373.91,373.91,373.91,373.91,373.91,373.91,380.56,380.56,380.56,389.29,389.29,389.29,391.79,391.79,385.55,385.55,383.47,376.82,365.18,355.21,348.97,343.98,336.50,330.27,325.69,321.95,317.38,314.05,312.39,312.81,312.81,312.39,312.39,312.39,312.39,311.56,311.56,311.56,312.39,312.39,312.81,312.81,313.22,313.64,314.89,315.72,319.04,319.04,319.04,319.04,319.04,319.04,316.96,314.05,314.05,313.64,313.22,313.22,312.81,312.39,312.39,312.39,312.39,312.39,312.39,311.56,311.56,312.39,312.39,312.39,312.39,312.39,312.39,312.39,312.39,312.81,313.64,314.05,314.05,319.04,322.78,331.51,339.41,339.41,350.22,358.12,367.68,367.68,370.59,377.24,377.24,377.24,380.15,385.55,391.79,391.79,389.29,389.29,380.56,380.56,380.56,380.56,380.56,380.56,380.56,380.56,380.56,380.56,380.56,380.56,380.56,380.56,380.56,380.56,380.56,380.56,380.56,380.56,373.91,373.91,373.91,373.91,366.02,366.02,366.02,366.02,366.02,366.02,366.02,366.02,366.02,366.02,366.02,366.02,366.02,366.02,366.02,366.02,366.02,366.02,366.02,366.02,366.02,366.02,366.02,366.02,373.91,373.91,373.91,373.91,373.91,373.91,373.91,373.91,373.91,373.91,373.91,373.91,373.91,373.91,373.91,373.91,373.91,373.91,373.91,373.91,373.91,373.91,373.91,373.91,373.91,380.56,380.56,380.56,380.56,380.56,380.56,380.56,380.56,380.56,380.56,389.29,389.29,389.29,389.29,389.29,389.29,389.29,389.29,389.29,389.29,389.29,389.29,389.29,389.29,389.29,389.29,389.29,389.29,380.56,380.56,380.56,380.56,380.56,380.56,380.56,380.56,380.56,380.56,380.56,380.56,380.56,380.56,380.56,380.56,389.29,389.29,389.29,389.29,389.29,389.29,389.29,389.29,389.29,389.29,389.29,389.29,389.29,389.29,389.29,389.29,389.29,389.29,389.29,380.56,380.56,380.56,380.56,380.56,380.56,380.56,380.56,380.56,389.29,389.29,389.29,389.29,389.29,389.29,389.29,389.29,389.29,389.29,389.29,389.29,389.29,389.29,389.29,389.29,389.29,389.29,389.29,389.29,389.29,389.29,389.29,389.29,389.29,389.29,389.29,389.29,389.29,389.29,389.29,389.29,389.29,389.29,389.29,389.29,389.29,389.29,389.29,389.29,389.29,389.29,389.29,389.29,389.29,389.29,389.29,389.29,389.29,389.29,389.29,389.29,389.29,389.29,389.29,389.29,389.29,389.29,389.29,389.29,389.29,389.29,389.29,389.29,389.29,389.29,389.29,389.29,389.29,389.29,389.29,389.29,389.29,389.29,389.29,391.79,391.79,391.79,391.79,391.79,391.79,391.79,391.79,391.79,391.79,391.79,389.29,389.29,389.29,389.29,389.29,389.29,389.29,389.29,389.29,380.56,380.56,380.56,380.56,380.56,380.56,380.56,380.56,380.56,380.56,380.56,389.29,389.29,389.29,389.29,389.29,389.29,389.29,389.29,389.29,389.29,389.29,389.29,389.29,389.29,389.29,389.29,389.29,389.29,389.29,389.29,389.29
380.56,380.56,380.56,380.56,380.56,380.56,380.56,380.56,380.56,380.56,380.56,380.56,380.56,380.56,380.56,380.56,380.56,380.56,380.56,380.56,380.56,380.56,373.91,373.91,373.91,373.91,373.91,373.91,373.91,373.91,373.91,373.91,373.91,373.91,373.91,373.91,373.91,373.91,373.91,373.91,373.91,373.91,373.91,373.91,373.91,373.91,373.91,373.91,373.91,373.91,373.91,373.91,373.91,373.91,373.91,373.91,373.91,373.91,373.91,373.91,373.91,373.91,380.56,380.56,380.56,389.29,389.29,389.29,391.79,391.79,385.55,385.55,379.32,370.59,359.36,353.55,349.39,345.23,335.67,328.19,326.11,324.86,319.04,316.13,313.22,312.81,312.81,312.39,312.39,312.39,312.39,311.56,311.56,311.56,312.39,312.39,312.81,312.81,313.22,314.47,315.72,316.96,319.04,319.04,319.04,319.04,319.04,319.04,316.96,314.05,314.05,313.64,313.22,313.22,312.81,312.39,312.39,312.39,312.39,312.39,311.56,311.56,311.56,311.56,311.56,311.56,311.56,311.56,312.39,312.39,312.39,312.81,313.64,314.05,314.05,319.04,322.78,331.51,339.41,339.41,350.22,358.12,367.68,367.68,370.59,377.24,377.24,377.24,380.15,385.55,391.79,391.79,389.29,389.29,380.56,380.56,380.56,380.56,380.56,380.56,380.56,380.56,380.56,380.56,380.56,380.56,380.56,380.56,380.56,380.56,380.56,380.56,380.56,380.56,373.91,373.91,373.91,373.91,366.02,366.02,366.02,366.02,366.02,366.02,366.02,366.02,366.02,366.02,366.02,366.02,366.02,366.02,366.02,366.02,366.02,366.02,366.02,366.02,366.02,366.02,366.02,366.02,373.91,373.91,373.91,373.91,373.91,373.91,373.91,373.91,373.91,373.91,373.91,373.91,373.91,373.91,373.91,373.91,373.91,373.91,373.91,373.91,373.91,373.91,373.91,373.91,380.56,380.56,380.56,380.56,380.56,380.56,380.56,380.56,380.56,380.56,380.56,389.29,389.29,389.29,389.29,389.29,389.29,389.29,389.29,389.29,389.29,389.29,389.29,389.29,389.29,389.29,389.29,389.29,389.29,380.56,380.56,380.56,380.56,380.56,380.56,380.56,380.56,380.56,380.56,380.56,380.56,380.56,380.56,380.56,389.29,389.29,389.29,389.29,389.29,389.29,389.29,389.29,389.29,389.29,389.29,389.29,389.29,389.29,389.29,389.29,389.29,389.29,389.29,389.29,389.29,389.29,380.56,380.56,380.56,380.56,380.56,380.56,380.56,380.56,380.56,380.56,389.29,389.29,389.29,389.29,389.29,389.29,389.29,389.29,389.29,389.29,389.29,389.29,389.29,389.29,389.29,389.29,389.29,389.29,389.29,389.29,389.29,389.29,389.29,389.29,389.29,389.29,389.29,389.29,389.29,389.29,389.29,389.29,389.29,389.29,389.29,389.29,389.29,389.29,389.29,389.29,389.29,389.29,389.29,389.29,389.29,389.29,389.29,389.29,389.29,389.29,389.29,389.29,389.29,389.29,389.29,389.29,389.29,389.29,389.29,389.29,389.29,389.29,389.29,389.29,389.29,389.29,389.29,389.29,389.29,389.29,389.29,389.29,391.79,391.79,391.79,391.79,391.79,391.79,391.79,391.79,391.79,391.79,391.79,391.79,391.79,389.29,389.29,389.29,389.29,389.29,389.29,389.29,380.56,380.56,380.56,380.56,380.56,380.56,380.56,380.56,380.56,380.56,380.56,389.29,389.29,389.29,389.29,389.29,389.29,389.29,389.29,389.29,389.29,389.29,389.29,389.29,389.29,389.29,389.29,389.29,389.29,389.29,389.29,389.29
380.56,380.56,380.56,380.56,380.56,380.56,380.56,380.56,380.56,380.56,380.56,380.56,380.56,380.56,380.56,380.56,380.56,380.56,380.56,380.56,380.56,380.56,380.56,373.91,380.56,380.56,373.91,373.91,373.91,373.91,373.91,373.91,373.91,373.91,373.91,373.91,373.91,373.91,373.91,373.91,373.91,373.91,373.91,373.91,373.91,373.91,373.91,373.91,373.91,373.91,373.91,373.91,373.91,373.91,373.91,373.91,373.91,373.91,373.91,373.91,373.91,373.91,380.56,380.56,380.56,389.29,389.29,389.29,391.79,391.79,380.15,373.50,373.50,363.94,353.96,353.96,350.22,350.22,335.67,324.86,324.86,324.86,322.78,318.63,313.64,312.81,312.81,312.39,312.39,312.39,312.39,312.39,312.39,312.39,312.39,312.39,312.81,312.81,313.22,314.47,315.72,316.96,319.04,319.04,319.04,321.12,319.04,319.04,316.96,314.05,314.05,313.64,313.22,313.22,312.81,312.39,312.39,312.39,312.39,312.39,311.56,311.56,311.56,311.56,311.56,311.56,311.56,311.56,312.39,312.39,312.39,312.81,313.64,316.96,319.04,319.04,322.78,331.51,339.41,339.41,353.96,363.94,367.68,367.68,370.59,377.24,377.24,377.24,380.15,385.55,391.79,391.79,389.29,380.56,380.56,380.56,380.56,373.91,373.91,380.56,380.56,380.56,380.56,380.56,380.56,380.56,380.56,380.56,380.56,380.56,380.56,380.56,380.56,380.56,373.91,373.91,373.91,373.91,366.02,366.02,366.02,366.02,366.02,366.02,366.02,366.02,366.02,366.02,366.02,366.02,366.02,366.02,366.02,366.02,366.02,366.02,366.02,366.02,366.02,366.02,366.02,366.02,373.91,373.91,373.91,373.91,373.91,373.91,373.91,373.91,373.91,373.91,373.91,373.91,373.91,373.91,373.91,373.91,373.91,373.91,373.91,373.91,373.91,373.91,380.56,380.56,380.56,380.56,380.56,380.56,380.56,380.56,380.56,380.56,380.56,380.56,380.56,389.29,389.29,389.29,389.29,389.29,389.29,389.29,389.29,389.29,389.29,389.29,389.29,389.29,389.29,389.29,389.29,389.29,380.56,380.56,380.56,380.56,380.56,380.56,380.56,380.56,380.56,380.56,380.56,380.56,380.56,389.29,389.29,389.29,389.29,389.29,389.29,389.29,389.29,389.29,389.29,389.29,389.29,389.29,389.29,389.29,389.29,389.29,389.29,389.29,389.29,389.29,389.29,389.29,389.29,389.29,389.29,380.56,380.56,380.56,380.56,380.56,380.56,380.56,380.56,380.56,389.29,389.29,389.29,389.29,389.29,389.29,389.29,389.29,389.29,389.29,389.29,389.29,389.29,389.29,389.29,389.29,389.29,389.29,389.29,389.29,389.29,389.29,389.29,389.29,389.29,389.29,389.29,389.29,389.29,389.29,389.29,389.29,389.29,389.29,389.29,389.29,389.29,380.56,380.56,380.56,389.29,389.29,389.29,389.29,389.29,389.29,389.29,389.29,389.29,389.29,389.29,389.29,389.29,389.29,389.29,389.29,389.29,389.29,389.29,389.29,389.29,389.29,389.29,389.29,389.29,389.29,389.29,389.29,389.29,389.29,389.29,389.29,391.79,391.79,391.79,391.79,391.79,391.79,391.79,391.79,391.79,391.79,391.79,391.79,391.79,389.29,389.29,389.29,389.29,389.29,380.56,380.56,380.56,380.56,380.56,380.56,380.56,380.56,380.56,380.56,380.56,380.56,380.56,380.56,380.56,389.29,389.29,389.29,389.29,389.29,389.29,389.29,389.29,389.29,389.29,389.29,389.29,389.29,389.29,389.29,389.29,389.29,389.29,389.29
373.91,380.56,380.56,380.56,380.56,380.56,380.56,380.56,380.56,380.56,380.56,380.56,380.56,380.56,380.56,380.56,380.56,380.56,380.56,380.56,380.56,380.56,380.56,373.91,380.56,380.56,373.91,373.91,373.91,373.91,373.91,373.91,373.91,373.91,373.91,373.91,373.91,373.91,373.91,373.91,373.91,373.91,373.91,373.91,373.91,373.91,373.91,373.91,373.91,373.91,373.91,373.91,373.91,373.91,373.91,373.91,373.91,373.91,373.91,373.91,373.91,373.91,373.91,373.91,380.56,389.29,389.29,389.29,391.79,391.79,377.24,370.59,370.59,363.94,353.96,353.96,345.23,345.23,331.51,324.86,324.86,324.86,321.54,319.04,313.64,312.81,312.81,312.39,312.39,312.39,312.39,312.39,312.39,312.39,312.39,312.39,312.81,312.81,313.22,314.05,316.96,316.96,319.04,321.12,321.12,321.12,319.04,319.04,319.04,314.05,314.05,314.05,313.22,313.22,312.81,312.39,312.39,312.39,312.39,312.39,311.56,311.56,311.56,311.56,311.56,311.56,311.56,311.56,312.39,312.39,312.39,312.81,313.64,316.96,321.12,321.12,324.86,331.51,339.41,339.41,353.96,363.94,367.68,367.68,370.59,377.24,380.15,380.15,380.15,385.55,391.79,391.79,389.29,380.56,380.56,380.56,373.91,373.91,373.91,373.91,373.91,380.56,380.56,380.56,380.56,380.56,380.56,380.56,380.56,380.56,380.56,380.56,380.56,380.56,373.91,373.91,373.91,373.91,366.02,366.02,366.02,366.02,366.02,366.02,366.02,366.02,366.02,366.02,366.02,366.02,366.02,366.02,366.02,366.02,366.02,366.02,366.02,366.02,366.02,366.02,366.02,366.02,373.91,373.91,373.91,373.91,373.91,373.91,373.91,373.91,373.91,373.91,373.91,373.91,373.91,373.91,373.91,373.91,373.91,373.91,373.91,373.91,373.91,373.91,380.56,380.56,380.56,380.56,380.56,380.56,380.56,380.56,380.56,380.56,380.56,380.56,380.56,389.29,389.29,389.29,389.29,389.29,389.29,389.29,389.29,389.29,389.29,389.29,389.29,389.29,389.29,389.29,389.29,389.29,380.56,380.56,380.56,380.56,380.56,380.56,380.56,380.56,380.56,380.56,380.56,380.56,380.56,389.29,389.29,389.29,389.29,389.29,389.29,389.29,389.29,389.29,389.29,389.29,389.29,389.29,389.29,389.29,389.29,389.29,389.29,389.29,389.29,389.29,389.29,389.29,389.29,389.29,389.29,380.56,380.56,380.56,380.56,380.56,380.56,380.56,380.56,380.56,380.56,380.56,380.56,389.29,389.29,389.29,389.29,389.29,389.29,389.29,389.29,389.29,389.29,389.29,389.29,389.29,389.29,389.29,389.29,389.29,389.29,389.29,389.29,389.29,389.29,389.29,389.29,389.29,389.29,389.29,389.29,389.29,380.56,380.56,380.56,380.56,380.56,380.56,380.56,380.56,380.56,389.29,389.29,389.29,389.29,389.29,389.29,389.29,389.29,389.29,389.29,389.29,389.29,389.29,389.29,389.29,389.29,389.29,389.29,389.29,389.29,389.29,389.29,389.29,389.29,389.29,389.29,389.29,389.29,389.29,389.29,389.29,391.79,391.79,391.79,391.79,391.79,391.79,391.79,391.79,391.79,391.79,391.79,391.79,391.79,391.79,391.79,389.29,389.29,389.29,389.29,389.29,380.56,380.56,380.56,380.56,380.56,380.56,380.56,380.56,380.56,380.56,380.56,380.56,380.56,389.29,389.29,389.29,389.29,389.29,389.29,389.29,389.29,389.29,389.29,389.29,389.29,389.29,389.29,389.29,389.29,389.29,389.29,389.29
373.91,380.56,380.56,380.56,380.56,380.56,380.56,380.56,380.56,380.56,380.56,380.56,380.56,380.56,380.56,380.56,380.56,380.56,380.56,380.56,380.56,380.56,380.56,373.91,380.56,380.56,373.91,373.91,373.91,373.91,373.91,373.91,373.91,373.91,373.91,373.91,373.91,373.91,373.91,373.91,373.91,373.91,373.91,373.91,373.91,373.91,373.91,373.91,373.91,373.91,373.91,373.91,373.91,373.91,373.91,373.91,373.91,373.91,373.91,373.91,373.91,373.91,373.91,373.91,380.56,380.56,380.56,389.29,391.79,391.79,377.24,370.59,370.59,363.94,353.96,353.96,345.23,345.23,331.51,324.86,324.86,324.86,321.54,319.46,314.05,313.22,313.22,312.81,312.81,312.81,312.39,312.39,312.39,312.39,312.39,312.81,312.81,312.81,313.64,314.05,316.96,316.96,319.04,321.12,321.12,321.12,319.04,319.04,319.04,316.96,316.96,314.05,313.22,313.22,312.81,312.81,312.81,312.39,312.39,312.39,311.56,311.56,311.56,311.56,311.56,311.56,311.56,311.56,312.39,312.39,312.39,313.22,313.64,316.96,321.12,321.12,324.86,331.51,345.23,345.23,353.96,363.94,367.68,367.68,370.59,377.24,380.15,380.15,385.55,385.55,391.79,391.79,389.29,380.56,380.56,380.56,373.91,373.91,373.91,373.91,373.91,373.91,380.56,380.56,380.56,380.56,380.56,380.56,380.56,380.56,380.56,380.56,380.56,380.56,373.91,373.91,373.91,373.91,366.02,366.02,366.02,366.02,366.02,366.02,366.02,366.02,366.02,366.02,366.02,366.02,366.02,366.02,366.02,366.02,366.02,366.02,366.02,366.02,366.02,366.02,366.02,366.02,373.91,373.91,373.91,373.91,373.91,373.91,373.91,373.91,373.91,373.91,373.91,373.91,373.91,373.91,373.91,373.91,373.91,373.91,373.91,373.91,373.91,373.91,380.56,380.56,380.56,380.56,380.56,380.56,380.56,380.56,380.56,380.56,380.56,380.56,389.29,389.29,389.29,389.29,389.29,389.29,389.29,389.29,389.29,389.29,389.29,389.29,389.29,389.29,389.29,389.29,389.29,389.29,389.29,380.56,380.56,380.56,380.56,380.56,380.56,380.56,380.56,380.56,380.56,389.29,389.29,389.29,389.29,389.29,389.29,389.29,389.29,389.29,389.29,389.29,389.29,389.29,389.29,389.29,389.29,389.29,389.29,389.29,389.29,389.29,389.29,389.29,389.29,389.29,389.29,389.29,389.29,380.56,380.56,380.56,380.56,380.56,380.56,380.56,380.56,380.56,380.56,380.56,380.56,389.29,389.29,389.29,389.29,389.29,389.29,389.29,389.29,389.29,389.29,389.29,389.29,389.29,389.29,389.29,389.29,389.29,389.29,389.29,389.29,389.29,389.29,389.29,389.29,389.29,389.29,389.29,389.29,389.29,380.56,380.56,380.56,380.56,380.56,380.56,380.56,380.56,389.29,389.29,389.29,389.29,389.29,389.29,389.29,389.29,389.29,389.29,389.29,389.29,389.29,389.29,389.29,389.29,389.29,389.29,389.29,389.29,389.29,389.29,389.29,389.29,389.29,389.29,389.29,389.29,389.29,389.29,389.29,389.29,391.79,391.79,391.79,391.79,391.79,391.79,391.79,391.79,391.79,391.79,391.79,391.79,391.79,391.79,391.79,391.79,391.79,389.29,389.29,389.29,389.29,380.56,380.56,380.56,380.56,380.56,380.56,380.56,380.56,380.56,380.56,380.56,380.56,389.29,389.29,389.29,389.29,389.29,389.29,389.29,389.29,389.29,389.29,389.29,389.29,389.29,389.29,389.29,389.29,389.29,389.29,389.29
373.91,380.56,380.56,380.56,380.56,380.56,380.56,380.56,380.56,380.56,380.56,380.56,380.56,380.56,380.56,380.56,380.56,380.56,380.56,380.56,380.56,380.56,380.56,380.56,380.56,380.56,373.91,373.91,373.91,373.91,373.91,373.91,373.91,373.91,373.91,373.91,373.91,373.91,373.91,373.91,373.91,373.91,373.91,373.91,373.91,373.91,373.91,373.91,373.91,373.91,373.91,373.91,373.91,373.91,373.91,373.91,373.91,373.91,373.91,373.91,373.91,373.91,373.91,373.91,380.56,380.56,380.56,389.29,391.79,391.79,377.24,370.59,370.59,363.94,353.96,353.96,345.23,345.23,331.51,324.86,324.86,324.86,321.54,319.46,314.05,313.22,313.22,312.81,312.81,312.81,312.39,312.39,312.39,312.39,312.39,312.81,312.81,312.81,313.64,314.05,316.96,316.96,319.04,321.12,321.12,321.12,319.04,319.04,316.96,316.96,316.96,314.05,313.22,313.22,312.81,312.81,312.81,312.39,312.39,312.39,311.56,311.56,311.56,311.56,311.56,311.56,311.56,311.56,312.39,312.39,312.39,313.22,313.64,316.96,321.12,321.12,324.86,331.51,345.23,345.23,353.96,363.94,367.68,367.68,370.59,377.24,380.15,380.15,385.55,385.55,391.79,391.79,389.29,380.56,380.56,380.56,373.91,373.91,373.91,373.91,373.91,373.91,380.56,380.56,380.56,380.56,380.56,380.56,380.56,380.56,380.56,380.56,380.56,380.56,373.91,373.91,373.91,373.91,373.91,366.02,366.02,366.02,366.02,366.02,366.02,373.91,373.91,373.91,373.91,373.91,373.91,373.91,373.91,373.91,373.91,373.91,366.02,366.02,366.02,366.02,373.91,373.91,373.91,373.91,373.91,373.91,380.56,380.56,380.56,380.56,380.56,380.56,380.56,380.56,373.91,373.91,373.91,373.91,373.91,373.91,373.91,373.91,373.91,380.56,380.56,380.56,380.56,380.56,380.56,380.56,380.56,380.56,380.56,380.56,380.56,380.56,389.29,389.29,389.29,389.29,389.29,389.29,389.29,389.29,389.29,389.29,389.29,389.29,389.29,389.29,389.29,389.29,389.29,389.29,389.29,380.56,380.56,380.56,380.56,380.56,380.56,380.56,380.56,380.56,380.56,389.29,389.29,389.29,389.29,389.29,389.29,389.29,389.29,389.29,389.29,389.29,389.29,389.29,389.29,389.29,389.29,389.29,389.29,389.29,389.29,389.29,389.29,389.29,389.29,389.29,389.29,389.29,389.29,380.56,380.56,380.56,380.56,380.56,380.56,380.56,380.56,380.56,380.56,380.56,380.56,380.56,380.56,380.56,389.29,389.29,389.29,389.29,389.29,389.29,389.29,389.29,389.29,389.29,389.29,389.29,389.29,389.29,389.29,389.29,389.29,389.29,389.29,380.56,389.29,389.29,380.56,380.56,380.56,380.56,380.56,380.56,380.56,380.56,380.56,380.56,380.56,380.56,389.29,389.29,389.29,389.29,389.29,389.29,389.29,389.29,389.29,389.29,389.29,389.29,389.29,389.29,389.29,389.29,389.29,389.29,389.29,389.29,389.29,389.29,389.29,389.29,389.29,389.29,389.29,389.29,389.29,389.29,389.29,389.29,391.79,391.79,391.79,391.79,391.79,391.79,385.55,385.55,391.79,391.79,391.79,391.79,391.79,391.79,391.79,391.79,391.79,389.29,389.29,389.29,389.29,380.56,380.56,380.56,380.56,380.56,380.56,380.56,380.56,380.56,380.56,389.29,389.29,389.29,380.56,389.29,389.29,389.29,389.29,389.29,389.29,389.29,389.29,389.29,389.29,389.29,389.29,389.29,389.29,389.29,389.29,389.29
373.91,380.56,380.56,380.56,380.56,380.56,380.56,380.56,380.56,380.56,380.56,380.56,380.56,380.56,380.56,380.56,380.56,380.56,380.56,380.56,380.56,380.56,380.56,380.56,380.56,380.56,380.56,380.56,380.56,373.91,373.91,373.91,373.91,373.91,373.91,373.91,373.91,373.91,373.91,373.91,373.91,373.91,373.91,373.91,373.91,373.91,373.91,373.91,373.91,373.91,373.91,373.91,373.91,373.91,373.91,373.91,373.91,373.91,373.91,373.91,373.91,373.91,373.91,373.91,380.56,380.56,380.56,389.29,391.79,391.79,380.15,370.59,370.59,363.94,363.94,363.94,350.22,345.23,335.67,327.77,327.77,324.86,324.03,321.12,314.05,313.64,313.64,312.81,312.81,312.81,312.81,312.39,312.39,312.39,312.39,312.81,313.22,313.22,313.64,314.05,316.96,316.96,316.96,319.04,319.04,321.12,319.04,319.04,316.96,316.96,316.96,314.05,313.64,313.64,313.22,312.81,312.81,312.39,312.39,312.39,312.39,311.56,311.56,311.56,311.56,311.56,311.56,311.56,312.39,312.39,312.39,313.22,313.64,316.96,321.12,321.12,324.86,331.51,345.23,345.23,353.96,363.94,367.68,367.68,370.59,377.24,380.15,380.15,385.55,385.55,391.79,391.79,389.29,380.56,373.91,373.91,373.91,373.91,373.91,373.91,373.91,373.91,373.91,373.91,373.91,380.56,380.56,380.56,380.56,380.56,380.56,380.56,380.56,380.56,373.91,373.91,373.91,373.91,373.91,366.02,366.02,366.02,366.02,366.02,366.02,373.91,373.91,373.91,373.91,373.91,373.91,373.91,373.91,373.91,373.91,373.91,373.91,373.91,373.91,373.91,373.91,373.91,373.91,380.56,380.56,380.56,380.56,380.56,380.56,380.56,380.56,380.56,380.56,380.56,380.56,380.56,380.56,380.56,380.56,380.56,380.56,380.56,380.56,380.56,380.56,380.56,380.56,380.56,380.56,380.56,380.56,380.56,380.56,380.56,380.56,380.56,389.29,389.29,389.29,389.29,389.29,389.29,389.29,389.29,389.29,389.29,389.29,389.29,389.29,389.29,389.29,389.29,389.29,389.29,389.29,380.56,380.56,380.56,380.56,380.56,380.56,380.56,380.56,380.56,380.56,389.29,389.29,389.29,389.29,389.29,389.29,389.29,389.29,389.29,389.29,389.29,389.29,389.29,389.29,389.29,389.29,389.29,389.29,389.29,389.29,389.29,389.29,389.29,389.29,389.29,389.29,389.29,380.56,380.56,380.56,380.56,380.56,380.56,380.56,380.56,380.56,380.56,380.56,380.56,380.56,380.56,380.56,380.56,380.56,380.56,380.56,380.56,389.29,389.29,389.29,389.29,389.29,389.29,389.29,389.29,380.56,380.56,380.56,380.56,380.56,380.56,380.56,380.56,380.56,380.56,380.56,380.56,380.56,380.56,380.56,380.56,380.56,380.56,380.56,380.56,380.56,380.56,380.56,389.29,389.29,389.29,389.29,389.29,389.29,389.29,389.29,389.29,389.29,389.29,389.29,389.29,389.29,389.29,389.29,389.29,389.29,389.29,389.29,389.29,389.29,389.29,389.29,389.29,389.29,389.29,389.29,389.29,389.29,389.29,391.79,391.79,391.79,391.79,391.79,391.79,385.55,385.55,391.79,391.79,391.79,391.79,391.79,391.79,391.79,391.79,391.79,389.29,389.29,389.29,389.29,380.56,380.56,380.56,380.56,380.56,380.56,380.56,380.56,380.56,380.56,389.29,389.29,389.29,380.56,380.56,380.56,389.29,389.29,389.29,389.29,389.29,389.29,389.29,389.29,389.29,389.29,389.29,389.29,389.29,389.29,389.29
373.91,373.91,373.91,380.56,380.56,380.56,380.56,380.56,380.56,380.56,380.56,380.56,380.56,380.56,380.56,380.56,380.56,380.56,380.56,380.56,380.56,380.56,380.56,380.56,380.56,380.56,380.56,380.56,380.56,380.56,380.56,380.56,373.91,373.91,373.91,373.91,373.91,373.91,373.91,373.91,373.91,373.91,373.91,373.91,373.91,373.91,373.91,373.91,373.91,373.91,373.91,373.91,373.91,373.91,373.91,373.91,373.91,373.91,373.91,373.91,373.91,373.91,373.91,373.91,380.56,380.56,380.56,389.29,391.79,391.79,380.15,373.50,373.50,370.59,363.94,363.94,353.96,345.23,345.23,345.23,334.84,331.51,323.62,321.54,316.96,313.64,313.64,313.22,312.81,312.81,312.81,312.39,312.39,312.39,312.39,312.81,313.22,313.22,313.64,314.05,316.96,316.96,316.96,319.04,319.04,321.12,319.04,319.04,316.96,316.96,316.96,314.05,313.64,313.64,313.22,312.81,312.81,312.39,312.39,312.39,312.39,311.56,311.56,311.56,311.56,311.56,311.56,311.56,312.39,312.39,312.39,313.22,313.64,316.96,321.12,321.12,324.86,331.51,345.23,345.23,353.96,363.94,367.68,367.68,370.59,377.24,380.15,380.15,385.55,385.55,391.79,391.79,389.29,380.56,373.91,373.91,373.91,366.02,366.02,366.02,373.91,373.91,373.91,373.91,373.91,373.91,380.56,380.56,380.56,380.56,380.56,380.56,380.56,373.91,373.91,373.91,373.91,373.91,373.91,366.02,366.02,366.02,366.02,366.02,366.02,373.91,373.91,373.91,373.91,373.91,373.91,373.91,373.91,373.91,373.91,373.91,373.91,373.91,373.91,373.91,373.91,373.91,373.91,380.56,380.56,380.56,380.56,380.56,380.56,380.56,380.56,380.56,380.56,380.56,380.56,380.56,380.56,380.56,380.56,380.56,380.56,380.56,380.56,380.56,380.56,380.56,380.56,380.56,380.56,380.56,380.56,380.56,380.56,380.56,380.56,380.56,389.29,389.29,389.29,389.29,389.29,389.29,389.29,389.29,389.29,389.29,389.29,389.29,389.29,389.29,389.29,389.29,389.29,389.29,389.29,380.56,380.56,380.56,380.56,380.56,380.56,380.56,380.56,380.56,389.29,389.29,389.29,389.29,389.29,389.29,389.29,389.29,389.29,389.29,389.29,389.29,389.29,389.29,389.29,389.29,389.29,389.29,389.29,389.29,389.29,389.29,389.29,389.29,389.29,389.29,389.29,389.29,380.56,380.56,380.56,380.56,380.56,380.56,380.56,380.56,380.56,380.56,380.56,380.56,380.56,380.56,380.56,380.56,380.56,380.56,380.56,380.56,389.29,389.29,389.29,389.29,389.29,389.29,389.29,389.29,380.56,380.56,380.56,380.56,380.56,380.56,380.56,380.56,380.56,380.56,380.56,380.56,380.56,380.56,380.56,380.56,380.56,380.56,380.56,380.56,380.56,380.56,380.56,389.29,389.29,389.29,389.29,389.29,389.29,389.29,389.29,389.29,389.29,389.29,389.29,389.29,389.29,389.29,389.29,389.29,389.29,389.29,389.29,389.29,389.29,389.29,389.29,389.29,389.29,389.29,389.29,389.29,389.29,389.29,391.79,391.79,391.79,391.79,391.79,391.79,385.55,385.55,385.55,385.55,391.79,391.79,391.79,391.79,391.79,391.79,391.79,391.79,389.29,389.29,389.29,389.29,380.56,380.56,380.56,380.56,380.56,380.56,380.56,380.56,380.56,389.29,389.29,389.29,389.29,389.29,389.29,389.29,389.29,389.29,389.29,389.29,389.29,389.29,389.29,389.29,389.29,389.29,389.29,389.29,389.29,389.29
373.91,373.91,373.91,373.91,373.91,380.56,380.56,380.56,380.56,380.56,380.56,380.56,380.56,380.56,380.56,380.56,380.56,380.56,380.56,380.56,380.56,380.56,380.56,380.56,380.56,380.56,380.56,380.56,380.56,380.56,380.56,380.56,373.91,373.91,373.91,373.91,373.91,373.91,373.91,373.91,373.91,373.91,373.91,373.91,373.91,373.91,373.91,373.91,373.91,373.91,373.91,373.91,373.91,373.91,373.91,373.91,373.91,373.91,373.91,373.91,373.91,373.91,373.91,373.91,380.56,380.56,380.56,389.29,391.79,391.79,380.15,373.50,373.50,370.59,363.94,363.94,353.96,345.23,345.23,335.67,335.67,324.86,322.78,322.78,316.96,313.64,313.64,313.22,312.81,312.81,312.81,312.39,312.39,312.39,312.39,312.81,313.22,313.22,313.64,314.05,316.96,316.96,316.96,319.04,319.04,321.12,319.04,319.04,316.96,316.96,316.96,314.05,313.64,313.64,313.22,312.81,312.81,312.39,312.39,312.39,312.39,311.56,311.56,311.56,311.56,311.56,311.56,311.56,312.39,312.39,312.39,313.22,313.64,316.96,321.12,321.12,324.86,331.51,345.23,345.23,353.96,363.94,367.68,367.68,370.59,377.24,380.15,380.15,385.55,385.55,391.79,391.79,389.29,380.56,373.91,373.91,373.91,366.02,366.02,366.02,373.91,373.91,373.91,373.91,373.91,373.91,380.56,380.56,380.56,380.56,380.56,380.56,380.56,373.91,373.91,373.91,373.91,373.91,373.91,366.02,366.02,366.02,366.02,366.02,366.02,373.91,373.91,373.91,373.91,373.91,373.91,373.91,373.91,373.91,373.91,373.91,373.91,373.91,373.91,373.91,373.91,373.91,380.56,380.56,380.56,380.56,380.56,380.56,380.56,380.56,380.56,380.56,380.56,380.56,380.56,380.56,380.56,380.56,380.56,380.56,380.56,380.56,380.56,380.56,380.56,380.56,380.56,380.56,380.56,380.56,380.56,380.56,380.56,380.56,380.56,380.56,389.29,389.29,389.29,389.29,389.29,389.29,389.29,389.29,389.29,389.29,389.29,389.29,389.29,389.29,389.29,389.29,389.29,389.29,389.29,380.56,380.56,380.56,380.56,380.56,380.56,380.56,380.56,389.29,389.29,389.29,389.29,389.29,389.29,389.29,389.29,389.29,389.29,389.29,389.29,389.29,389.29,389.29,389.29,389.29,389.29,389.29,389.29,389.29,389.29,389.29,389.29,389.29,389.29,389.29,389.29,389.29,380.56,380.56,380.56,380.56,380.56,380.56,380.56,380.56,380.56,380.56,380.56,380.56,380.56,380.56,380.56,380.56,380.56,380.56,380.56,380.56,380.56,380.56,380.56,389.29,389.29,380.56,389.29,389.29,380.56,380.56,380.56,380.56,380.56,380.56,380.56,380.56,380.56,380.56,380.56,380.56,380.56,380.56,380.56,380.56,380.56,380.56,380.56,380.56,380.56,380.56,380.56,380.56,380.56,389.29,389.29,389.29,389.29,389.29,389.29,389.29,389.29,389.29,389.29,389.29,389.29,389.29,389.29,389.29,389.29,389.29,389.29,389.29,389.29,389.29,389.29,389.29,389.29,389.29,389.29,389.29,389.29,389.29,389.29,389.29,391.79,391.79,391.79,391.79,391.79,385.55,385.55,385.55,391.79,391.79,391.79,391.79,391.79,391.79,391.79,391.79,389.29,389.29,389.29,389.29,380.56,380.56,380.56,380.56,380.56,380.56,380.56,380.56,380.56,389.29,389.29,389.29,389.29,389.29,389.29,389.29,389.29,389.29,389.29,389.29,389.29,389.29,389.29,389.29,389.29,389.29,389.29,389.29,389.29,389.29
373.91,373.91,373.91,373.91,373.91,380.56,380.56,380.56,380.56,380.56,380.56,380.56,380.56,380.56,380.56,380.56,380.56,380.56,380.56,380.56,380.56,380.56,380.56,380.56,380.56,380.56,380.56,380.56,380.56,380.56,380.56,380.56,373.91,373.91,373.91,373.91,373.91,373.91,373.91,373.91,373.91,373.91,373.91,373.91,373.91,373.91,373.91,373.91,373.91,373.91,373.91,373.91,373.91,373.91,373.91,373.91,373.91,373.91,373.91,366.02,373.91,373.91,373.91,373.91,373.91,380.56,380.56,380.56,391.79,391.79,391.79,384.31,379.73,375.58,367.68,367.68,358.12,350.22,350.22,335.67,331.51,331.51,322.78,322.78,316.96,314.05,314.05,313.22,312.81,312.81,312.81,312.81,312.81,312.39,312.39,312.81,313.22,313.22,313.64,314.05,316.96,316.96,316.96,319.04,319.04,321.12,319.04,319.04,319.04,316.96,316.96,314.05,313.64,313.64,313.22,312.81,312.81,312.39,312.39,312.39,312.39,311.56,311.56,311.56,311.56,311.56,311.56,311.56,312.39,312.39,312.39,313.22,313.64,316.96,321.12,321.12,324.86,331.51,345.23,345.23,353.96,363.94,367.68,367.68,370.59,377.24,380.15,380.15,385.55,391.79,389.29,389.29,389.29,380.56,373.91,373.91,366.02,366.02,366.02,366.02,366.02,366.02,366.02,373.91,373.91,373.91,373.91,373.91,373.91,373.91,373.91,373.91,373.91,373.91,373.91,373.91,373.91,373.91,373.91,366.02,366.02,366.02,366.02,373.91,373.91,373.91,373.91,373.91,373.91,373.91,373.91,373.91,373.91,373.91,373.91,373.91,373.91,373.91,373.91,373.91,380.56,380.56,380.56,380.56,380.56,380.56,380.56,380.56,380.56,380.56,380.56,380.56,380.56,380.56,380.56,380.56,380.56,380.56,380.56,380.56,380.56,380.56,380.56,380.56,380.56,380.56,380.56,380.56,380.56,380.56,380.56,380.56,380.56,380.56,380.56,380.56,389.29,389.29,389.29,389.29,389.29,389.29,389.29,389.29,389.29,389.29,389.29,389.29,389.29,389.29,389.29,389.29,389.29,389.29,380.56,380.56,380.56,380.56,380.56,380.56,380.56,380.56,380.56,389.29,389.29,389.29,389.29,389.29,389.29,389.29,389.29,389.29,389.29,389.29,389.29,389.29,389.29,389.29,389.29,389.29,389.29,389.29,389.29,389.29,389.29,389.29,389.29,389.29,389.29,389.29,380.56,380.56,380.56,380.56,380.56,380.56,380.56,380.56,380.56,380.56,380.56,380.56,380.56,380.56,380.56,380.56,380.56,380.56,380.56,380.56,380.56,380.56,380.56,380.56,380.56,380.56,380.56,380.56,380.56,380.56,380.56,380.56,380.56,380.56,380.56,380.56,380.56,380.56,380.56,380.56,380.56,380.56,380.56,380.56,380.56,380.56,380.56,380.56,380.56,380.56,380.56,380.56,380.56,380.56,380.56,380.56,389.29,389.29,389.29,389.29,389.29,389.29,389.29,389.29,389.29,389.29,389.29,389.29,389.29,389.29,389.29,389.29,389.29,389.29,389.29,389.29,389.29,389.29,389.29,389.29,389.29,389.29,389.29,389.29,389.29,389.29,389.29,391.79,391.79,391.79,391.79,391.79,391.79,391.79,391.79,391.79,391.79,391.79,391.79,391.79,391.79,391.79,389.29,389.29,389.29,389.29,380.56,380.56,380.56,380.56,380.56,380.56,380.56,380.56,380.56,389.29,389.29,389.29,389.29,389.29,389.29,389.29,389.29,389.29,389.29,389.29,389.29,389.29,389.29,389.29,389.29,389.29,389.29,389.29,389.29,389.29
373.91,373.91,373.91,373.91,373.91,373.91,373.91,380.56,380.56,380.56,380.56,380.56,380.56,380.56,380.56,380.56,380.56,380.56,380.56,380.56,380.56,380.56,380.56,380.56,380.56,380.56,380.56,380.56,380.56,380.56,380.56,373.91,373.91,373.91,373.91,373.91,373.91,373.91,373.91,373.91,373.91,373.91,373.91,373.91,373.91,373.91,373.91,373.91,373.91,373.91,373.91,373.91,366.02,366.02,366.02,366.02,366.02,366.02,366.02,366.02,366.02,366.02,366.02,366.02,373.91,373.91,373.91,380.56,389.29,389.29,391.79,385.55,385.55,377.24,370.59,370.59,363.94,353.96,353.96,345.23,331.51,331.51,322.78,322.78,319.04,314.05,314.05,313.22,312.81,312.81,312.81,312.81,312.81,312.39,312.39,312.81,313.22,313.22,313.64,313.64,314.05,314.05,316.96,319.04,319.04,319.04,319.04,319.04,319.04,316.96,316.96,314.05,313.64,313.64,313.22,312.81,312.81,312.39,312.39,312.39,312.39,311.56,311.56,311.56,311.56,311.56,311.56,311.56,312.39,312.39,312.39,313.22,313.64,316.96,321.12,321.12,324.86,331.51,345.23,345.23,353.96,363.94,367.68,367.68,370.59,377.24,380.15,380.15,385.55,391.79,389.29,389.29,389.29,380.56,373.91,373.91,366.02,366.02,366.02,366.02,366.02,366.02,366.02,366.02,366.02,373.91,373.91,373.91,373.91,373.91,373.91,373.91,373.91,373.91,373.91,373.91,373.91,373.91,373.91,366.02,366.02,366.02,366.02,373.91,373.91,373.91,373.91,373.91,373.91,373.91,373.91,373.91,373.91,373.91,373.91,373.91,373.91,373.91,373.91,373.91,380.56,380.56,380.56,380.56,380.56,380.56,380.56,380.56,380.56,380.56,380.56,380.56,380.56,380.56,380.56,380.56,380.56,380.56,380.56,380.56,380.56,380.56,380.56,380.56,380.56,380.56,380.56,380.56,380.56,380.56,380.56,380.56,380.56,380.56,380.56,380.56,389.29,389.29,389.29,389.29,389.29,389.29,389.29,389.29,389.29,389.29,389.29,389.29,380.56,380.56,380.56,380.56,380.56,380.56,380.56,380.56,380.56,380.56,380.56,380.56,380.56,380.56,380.56,389.29,389.29,389.29,389.29,389.29,389.29,389.29,389.29,389.29,389.29,389.29,389.29,389.29,389.29,389.29,389.29,389.29,389.29,389.29,389.29,389.29,389.29,389.29,380.56,389.29,389.29,380.56,380.56,380.56,380.56,380.56,380.56,380.56,380.56,380.56,380.56,373.91,373.91,373.91,380.56,380.56,380.56,380.56,380.56,380.56,380.56,380.56,380.56,380.56,380.56,380.56,380.56,380.56,380.56,380.56,380.56,380.56,380.56,380.56,380.56,380.56,380.56,380.56,380.56,380.56,380.56,380.56,380.56,380.56,380.56,380.56,380.56,380.56,380.56,380.56,380.56,380.56,380.56,380.56,380.56,380.56,380.56,380.56,389.29,389.29,389.29,389.29,389.29,389.29,389.29,389.29,389.29,389.29,389.29,389.29,389.29,389.29,389.29,389.29,389.29,389.29,389.29,389.29,389.29,389.29,389.29,389.29,389.29,389.29,389.29,389.29,389.29,389.29,389.29,391.79,391.79,391.79,391.79,391.79,391.79,391.79,391.79,391.79,391.79,391.79,391.79,391.79,391.79,391.79,389.29,389.29,389.29,389.29,389.29,389.29,380.56,380.56,380.56,380.56,380.56,380.56,380.56,389.29,389.29,389.29,389.29,389.29,389.29,389.29,389.29,389.29,389.29,389.29,389.29,389.29,389.29,389.29,389.29,389.29,389.29,389.29,389.29,389.29
373.91,373.91,373.91,373.91,373.91,373.91,373.91,373.91,380.56,380.56,380.56,380.56,380.56,380.56,380.56,380.56,380.56,380.56,380.56,380.56,380.56,380.56,380.56,380.56,380.56,380.56,380.56,380.56,373.91,373.91,373.91,373.91,373.91,373.91,373.91,373.91,373.91,373.91,373.91,373.91,373.91,373.91,373.91,366.02,366.02,366.02,366.02,366.02,366.02,366.02,366.02,366.02,366.02,366.02,366.02,366.02,366.02,366.02,366.02,366.02,366.02,366.02,366.02,366.02,373.91,373.91,373.91,373.91,389.29,389.29,391.79,385.55,385.55,377.24,373.50,373.50,367.68,358.12,358.12,350.22,335.67,335.67,335.67,323.20,319.04,314.05,314.05,313.22,313.22,313.22,312.81,312.81,312.81,312.39,312.39,312.81,313.22,313.22,313.64,313.64,314.05,314.05,316.96,319.04,319.04,319.04,319.04,319.04,319.04,316.96,316.96,314.05,313.64,313.64,313.22,312.81,312.81,312.81,312.39,312.39,312.39,312.39,312.39,311.56,311.56,311.56,311.56,311.56,312.39,312.39,312.39,313.22,313.64,316.96,321.12,321.12,324.86,331.51,345.23,345.23,353.96,363.94,367.68,367.68,370.59,377.24,380.15,380.15,385.55,391.79,389.29,389.29,389.29,380.56,373.91,373.91,366.02,366.02,366.02,366.02,366.02,366.02,366.02,366.02,366.02,373.91,373.91,373.91,373.91,373.91,373.91,373.91,373.91,373.91,373.91,373.91,373.91,373.91,373.91,373.91,373.91,373.91,373.91,373.91,373.91,373.91,373.91,373.91,373.91,373.91,373.91,373.91,373.91,380.56,380.56,380.56,380.56,380.56,380.56,380.56,380.56,380.56,380.56,380.56,380.56,380.56,380.56,380.56,380.56,380.56,380.56,380.56,380.56,380.56,380.56,380.56,380.56,380.56,380.56,380.56,380.56,380.56,380.56,380.56,380.56,380.56,380.56,380.56,380.56,380.56,380.56,380.56,380.56,380.56,380.56,380.56,389.29,389.29,389.29,389.29,389.29,389.29,389.29,389.29,389.29,389.29,389.29,389.29,380.56,380.56,380.56,380.56,380.56,380.56,380.56,380.56,380.56,380.56,380.56,380.56,380.56,380.56,380.56,389.29,389.29,389.29,389.29,389.29,389.29,389.29,389.29,389.29,389.29,389.29,389.29,389.29,389.29,389.29,389.29,389.29,389.29,389.29,389.29,389.29,389.29,389.29,380.56,389.29,389.29,380.56,380.56,380.56,380.56,380.56,380.56,380.56,380.56,380.56,380.56,380.56,380.56,380.56,380.56,380.56,380.56,380.56,380.56,380.56,380.56,380.56,380.56,380.56,380.56,380.56,380.56,380.56,380.56,380.56,380.56,380.56,380.56,380.56,380.56,380.56,380.56,380.56,380.56,380.56,380.56,380.56,380.56,380.56,380.56,380.56,380.56,380.56,380.56,380.56,380.56,380.56,380.56,380.56,380.56,380.56,380.56,380.56,389.29,389.29,389.29,389.29,389.29,389.29,389.29,389.29,389.29,389.29,389.29,389.29,389.29,389.29,389.29,389.29,389.29,389.29,389.29,389.29,389.29,389.29,389.29,389.29,389.29,389.29,389.29,389.29,389.29,389.29,389.29,389.29,389.29,389.29,391.79,391.79,391.79,391.79,391.79,391.79,391.79,391.79,391.79,391.79,391.79,391.79,389.29,389.29,389.29,389.29,389.29,389.29,389.29,380.56,380.56,380.56,380.56,380.56,389.29,389.29,389.29,389.29,389.29,389.29,389.29,389.29,389.29,389.29,389.29,389.29,389.29,389.29,389.29,389.29,389.29,389.29,389.29,389.29,389.29,389.29
373.91,373.91,373.91,373.91,373.91,373.91,373.91,373.91,380.56,380.56,380.56,380.56,380.56,380.56,380.56,380.56,380.56,380.56,380.56,380.56,380.56,380.56,380.56,380.56,380.56,380.56,380.56,380.56,373.91,373.91,373.91,373.91,373.91,373.91,373.91,373.91,373.91,373.91,373.91,373.91,373.91,373.91,373.91,366.02,366.02,366.02,366.02,366.02,366.02,366.02,366.02,366.02,366.02,366.02,366.02,366.02,366.02,366.02,366.02,366.02,366.02,366.02,366.02,366.02,373.91,373.91,373.91,373.91,389.29,389.29,391.79,385.55,385.55,377.24,373.50,373.50,367.68,358.12,358.12,350.22,335.67,335.67,327.77,325.69,319.04,314.05,314.05,313.22,313.22,313.22,312.81,312.81,312.81,312.39,312.39,312.81,313.22,313.22,313.22,313.64,314.05,314.05,316.96,316.96,316.96,319.04,319.04,319.04,316.96,316.96,316.96,314.05,313.64,313.64,313.22,312.81,312.81,312.81,312.39,312.39,312.39,312.39,312.39,311.56,311.56,312.39,312.39,312.39,312.39,312.39,312.39,313.22,313.64,316.96,321.12,321.12,324.86,331.51,345.23,345.23,353.96,363.94,367.68,367.68,370.59,377.24,377.24,377.24,385.55,391.79,389.29,389.29,380.56,373.91,373.91,373.91,366.02,366.02,366.02,366.02,366.02,366.02,366.02,366.02,366.02,366.02,373.91,373.91,373.91,373.91,373.91,373.91,373.91,373.91,373.91,373.91,373.91,373.91,373.91,373.91,373.91,373.91,373.91,373.91,373.91,373.91,373.91,373.91,373.91,373.91,373.91,373.91,380.56,380.56,380.56,380.56,380.56,380.56,380.56,380.56,380.56,380.56,380.56,380.56,380.56,380.56,380.56,380.56,380.56,380.56,380.56,380.56,380.56,380.56,380.56,380.56,380.56,380.56,380.56,380.56,380.56,380.56,380.56,380.56,380.56,380.56,380.56,380.56,380.56,380.56,380.56,380.56,380.56,380.56,380.56,380.56,380.56,380.56,380.56,389.29,389.29,389.29,389.29,389.29,380.56,380.56,380.56,380.56,380.56,380.56,380.56,380.56,380.56,380.56,380.56,380.56,380.56,380.56,380.56,380.56,380.56,380.56,380.56,389.29,389.29,389.29,389.29,389.29,389.29,389.29,389.29,389.29,389.29,389.29,389.29,389.29,389.29,389.29,389.29,389.29,389.29,389.29,389.29,389.29,389.29,380.56,380.56,380.56,380.56,380.56,380.56,380.56,380.56,380.56,380.56,380.56,380.56,380.56,380.56,380.56,380.56,380.56,380.56,380.56,380.56,380.56,380.56,380.56,380.56,380.56,380.56,380.56,380.56,380.56,380.56,380.56,380.56,380.56,380.56,380.56,380.56,380.56,380.56,380.56,380.56,380.56,380.56,380.56,380.56,380.56,380.56,380.56,380.56,380.56,380.56,380.56,380.56,380.56,380.56,380.56,380.56,380.56,380.56,380.56,380.56,380.56,389.29,389.29,389.29,389.29,389.29,389.29,389.29,389.29,389.29,389.29,389.29,389.29,389.29,389.29,389.29,389.29,389.29,389.29,389.29,389.29,389.29,389.29,389.29,389.29,389.29,389.29,389.29,389.29,389.29,389.29,389.29,389.29,389.29,389.29,389.29,389.29,389.29,389.29,389.29,389.29,391.79,391.79,391.79,391.79,391.79,391.79,389.29,389.29,389.29,389.29,389.29,389.29,389.29,380.56,389.29,389.29,389.29,380.56,389.29,389.29,389.29,389.29,389.29,389.29,389.29,389.29,389.29,389.29,389.29,389.29,389.29,389.29,389.29,389.29,389.29,389.29,389.29,389.29,389.29,389.29
373.91,373.91,373.91,373.91,373.91,373.91,373.91,373.91,380.56,380.56,380.56,380.56,380.56,380.56,380.56,380.56,380.56,380.56,380.56,380.56,380.56,380.56,380.56,380.56,380.56,380.56,373.91,373.91,373.91,373.91,373.91,373.91,373.91,373.91,373.91,373.91,373.91,373.91,373.91,366.02,366.02,366.02,366.02,366.02,366.02,366.02,366.02,366.02,366.02,366.02,366.02,366.02,366.02,366.02,366.02,366.02,366.02,366.02,366.02,366.02,366.02,366.02,366.02,366.02,366.02,366.02,366.02,373.91,380.56,380.56,389.29,385.55,385.55,380.15,377.24,377.24,370.59,363.94,363.94,353.96,345.23,345.23,327.77,328.19,321.12,316.96,316.96,313.22,313.22,313.22,312.81,312.81,312.81,312.39,312.39,312.81,312.81,312.81,313.22,313.64,314.05,314.05,314.05,316.96,316.96,316.96,319.04,319.04,316.96,316.96,316.96,314.05,313.64,313.64,313.22,313.22,313.22,312.81,312.81,312.81,312.39,312.39,312.39,312.39,312.39,312.39,312.39,312.39,312.39,312.39,312.39,313.22,313.64,316.96,321.12,321.12,324.86,331.51,345.23,345.23,353.96,363.94,367.68,367.68,370.59,377.24,377.24,377.24,385.55,391.79,389.29,389.29,380.56,373.91,373.91,373.91,366.02,366.02,366.02,366.02,366.02,366.02,366.02,366.02,366.02,366.02,366.02,366.02,366.02,373.91,373.91,373.91,373.91,373.91,373.91,373.91,373.91,373.91,373.91,373.91,373.91,373.91,373.91,373.91,373.91,373.91,373.91,373.91,373.91,373.91,373.91,373.91,380.56,380.56,380.56,380.56,380.56,380.56,380.56,380.56,380.56,380.56,380.56,380.56,380.56,380.56,380.56,380.56,380.56,380.56,380.56,380.56,380.56,380.56,380.56,380.56,380.56,380.56,380.56,380.56,380.56,380.56,380.56,380.56,380.56,380.56,380.56,380.56,380.56,380.56,380.56,380.56,380.56,380.56,380.56,380.56,380.56,380.56,380.56,380.56,380.56,380.56,380.56,380.56,380.56,380.56,380.56,380.56,380.56,380.56,380.56,380.56,380.56,380.56,380.56,380.56,380.56,380.56,380.56,380.56,380.56,380.56,380.56,389.29,389.29,389.29,389.29,389.29,389.29,389.29,389.29,389.29,389.29,389.29,389.29,389.29,380.56,380.56,380.56,380.56,380.56,380.56,380.56,380.56,380.56,380.56,380.56,380.56,380.56,380.56,380.56,380.56,380.56,380.56,380.56,373.91,373.91,380.56,380.56,373.91,373.91,373.91,380.56,380.56,380.56,380.56,380.56,380.56,380.56,380.56,380.56,380.56,380.56,380.56,380.56,380.56,380.56,380.56,380.56,380.56,380.56,380.56,380.56,380.56,380.56,380.56,380.56,380.56,380.56,380.56,380.56,380.56,380.56,380.56,380.56,380.56,380.56,380.56,380.56,380.56,380.56,380.56,380.56,380.56,380.56,380.56,389.29,389.29,389.29,389.29,389.29,389.29,389.29,389.29,389.29,389.29,389.29,389.29,389.29,389.29,389.29,389.29,389.29,389.29,389.29,389.29,389.29,389.29,389.29,389.29,389.29,380.56,380.56,380.56,380.56,380.56,380.56,389.29,389.29,389.29,389.29,389.29,389.29,389.29,389.29,389.29,389.29,389.29,389.29,389.29,389.29,389.29,389.29,389.29,389.29,389.29,389.29,389.29,380.56,380.56,389.29,389.29,389.29,380.56,389.29,389.29,389.29,389.29,389.29,389.29,389.29,389.29,389.29,389.29,389.29,389.29,389.29,389.29,389.29,389.29,389.29,389.29,389.29,389.29,389.29,389.29
373.91,373.91,373.91,373.91,373.91,373.91,373.91,373.91,373.91,373.91,373.91,373.91,373.91,380.56,380.56,380.56,380.56,380.56,380.56,380.56,380.56,380.56,380.56,380.56,373.91,373.91,373.91,373.91,373.91,373.91,373.91,373.91,373.91,373.91,373.91,373.91,366.02,366.02,366.02,366.02,366.02,366.02,366.02,366.02,366.02,366.02,366.02,366.02,366.02,366.02,366.02,366.02,366.02,366.02,366.02,366.02,366.02,366.02,366.02,366.02,366.02,366.02,366.02,366.02,366.02,366.02,366.02,366.02,380.56,380.56,389.29,391.79,391.79,380.15,377.24,377.24,373.50,367.68,367.68,358.12,345.23,345.23,345.23,330.27,321.95,316.96,316.96,313.64,313.22,313.22,312.81,312.81,312.81,312.39,312.39,312.81,312.81,312.81,313.22,313.64,314.05,314.05,314.05,316.96,316.96,316.96,319.04,319.04,316.96,316.96,316.96,314.05,313.64,313.64,313.64,313.22,313.22,312.81,312.81,312.81,312.81,312.39,312.39,312.39,312.39,312.39,312.39,312.39,312.39,312.81,313.22,313.22,313.64,316.96,321.12,321.12,324.86,331.51,345.23,345.23,353.96,363.94,367.68,367.68,370.59,377.24,380.15,380.15,385.55,391.79,389.29,389.29,380.56,373.91,373.91,373.91,366.02,366.02,366.02,366.02,366.02,366.02,366.02,366.02,366.02,366.02,366.02,366.02,366.02,366.02,366.02,366.02,373.91,373.91,373.91,373.91,373.91,373.91,373.91,373.91,373.91,373.91,373.91,373.91,373.91,373.91,373.91,373.91,373.91,373.91,373.91,373.91,373.91,373.91,373.91,373.91,380.56,380.56,380.56,380.56,380.56,380.56,380.56,380.56,380.56,380.56,380.56,380.56,380.56,380.56,380.56,380.56,380.56,380.56,380.56,380.56,380.56,380.56,380.56,380.56,380.56,380.56,380.56,380.56,380.56,380.56,380.56,380.56,380.56,380.56,380.56,380.56,380.56,380.56,380.56,380.56,380.56,380.56,380.56,380.56,380.56,380.56,380.56,380.56,380.56,380.56,380.56,380.56,380.56,380.56,380.56,380.56,380.56,380.56,380.56,380.56,380.56,380.56,380.56,380.56,380.56,380.56,380.56,389.29,389.29,389.29,389.29,389.29,389.29,389.29,389.29,389.29,389.29,389.29,389.29,389.29,380.56,380.56,380.56,380.56,380.56,380.56,380.56,380.56,380.56,380.56,380.56,380.56,380.56,380.56,380.56,380.56,380.56,380.56,380.56,373.91,373.91,380.56,380.56,373.91,373.91,373.91,380.56,380.56,380.56,380.56,380.56,380.56,380.56,380.56,380.56,380.56,380.56,380.56,380.56,380.56,380.56,380.56,380.56,380.56,380.56,380.56,380.56,380.56,380.56,380.56,380.56,380.56,380.56,380.56,380.56,380.56,380.56,380.56,380.56,380.56,380.56,380.56,380.56,380.56,380.56,380.56,380.56,380.56,380.56,380.56,389.29,389.29,389.29,389.29,389.29,389.29,389.29,389.29,389.29,389.29,389.29,389.29,389.29,389.29,389.29,389.29,389.29,389.29,389.29,389.29,389.29,389.29,389.29,389.29,389.29,380.56,380.56,380.56,380.56,380.56,380.56,389.29,389.29,389.29,389.29,389.29,389.29,389.29,389.29,389.29,389.29,389.29,389.29,389.29,389.29,389.29,389.29,389.29,389.29,389.29,389.29,389.29,389.29,380.56,389.29,389.29,389.29,389.29,389.29,389.29,389.29,389.29,389.29,389.29,389.29,389.29,389.29,389.29,389.29,389.29,389.29,389.29,389.29,389.29,389.29,389.29,389.29,389.29,389.29,389.29
366.02,366.02,366.02,366.02,366.02,366.02,366.02,373.91,373.91,373.91,373.91,373.91,373.91,380.56,380.56,380.56,380.56,380.56,380.56,380.56,380.56,380.56,380.56,380.56,373.91,373.91,373.91,373.91,373.91,373.91,373.91,373.91,373.91,373.91,373.91,373.91,366.02,366.02,366.02,366.02,366.02,366.02,366.02,366.02,366.02,366.02,366.02,366.02,366.02,366.02,366.02,366.02,366.02,366.02,366.02,366.02,366.02,366.02,366.02,366.02,366.02,366.02,366.02,366.02,366.02,366.02,366.02,366.02,380.56,380.56,389.29,391.79,391.79,380.15,377.24,377.24,373.50,367.68,367.68,358.12,345.23,345.23,345.23,336.50,328.19,316.96,316.96,313.64,313.22,313.22,312.81,312.81,312.81,312.39,312.39,312.81,312.81,312.81,313.22,313.22,313.22,313.64,314.05,314.05,314.05,316.96,319.04,319.04,316.96,316.96,316.96,314.05,313.64,313.64,313.64,313.22,313.22,312.81,312.81,312.81,312.81,312.39,312.39,312.39,312.39,312.39,312.39,312.39,312.39,312.81,313.22,313.22,313.64,316.96,321.12,321.12,324.86,331.51,345.23,345.23,350.22,363.94,367.68,367.68,370.59,377.24,380.15,380.15,385.55,391.79,389.29,389.29,380.56,373.91,373.91,373.91,366.02,366.02,366.02,366.02,366.02,366.02,366.02,366.02,366.02,366.02,366.02,366.02,366.02,366.02,366.02,366.02,373.91,373.91,373.91,373.91,373.91,373.91,373.91,373.91,373.91,373.91,373.91,373.91,373.91,373.91,373.91,373.91,373.91,373.91,373.91,373.91,373.91,373.91,373.91,373.91,380.56,380.56,380.56,380.56,380.56,380.56,380.56,380.56,380.56,380.56,380.56,380.56,380.56,380.56,380.56,380.56,380.56,380.56,380.56,380.56,380.56,380.56,380.56,380.56,380.56,380.56,380.56,380.56,380.56,380.56,380.56,380.56,380.56,380.56,380.56,380.56,380.56,380.56,380.56,380.56,380.56,380.56,380.56,380.56,380.56,380.56,380.56,380.56,380.56,380.56,380.56,380.56,373.91,373.91,373.91,373.91,373.91,373.91,373.91,373.91,380.56,380.56,380.56,380.56,380.56,380.56,380.56,380.56,380.56,380.56,380.56,380.56,380.56,380.56,380.56,380.56,380.56,380.56,380.56,380.56,380.56,380.56,380.56,380.56,380.56,380.56,380.56,380.56,380.56,380.56,380.56,380.56,380.56,380.56,380.56,380.56,380.56,373.91,373.91,373.91,373.91,373.91,373.91,373.91,373.91,373.91,380.56,380.56,380.56,380.56,380.56,380.56,380.56,380.56,380.56,380.56,380.56,380.56,380.56,380.56,380.56,380.56,380.56,380.56,380.56,380.56,380.56,380.56,380.56,380.56,380.56,380.56,380.56,380.56,380.56,380.56,380.56,380.56,380.56,380.56,380.56,380.56,380.56,380.56,380.56,380.56,380.56,380.56,380.56,380.56,389.29,389.29,389.29,389.29,389.29,389.29,389.29,389.29,389.29,389.29,389.29,389.29,389.29,389.29,389.29,389.29,380.56,389.29,389.29,389.29,389.29,380.56,380.56,389.29,389.29,380.56,380.56,380.56,380.56,380.56,380.56,380.56,380.56,380.56,380.56,380.56,380.56,389.29,389.29,389.29,389.29,389.29,389.29,389.29,389.29,389.29,389.29,389.29,389.29,389.29,389.29,389.29,389.29,389.29,389.29,389.29,389.29,389.29,389.29,389.29,389.29,389.29,389.29,389.29,389.29,389.29,389.29,389.29,389.29,389.29,389.29,389.29,389.29,389.29,389.29,389.29,380.56,380.56,380.56,380.56
366.02,366.02,366.02,366.02,366.02,366.02,366.02,373.91,373.91,373.91,373.91,373.91,373.91,373.91,373.91,373.91,373.91,373.91,373.91,373.91,373.91,373.91,373.91,373.91,373.91,373.91,373.91,373.91,373.91,373.91,373.91,373.91,373.91,366.02,366.02,366.02,366.02,366.02,366.02,366.02,366.02,366.02,366.02,366.02,366.02,366.02,366.02,366.02,366.02,366.02,366.02,366.02,366.02,366.02,366.02,366.02,358.12,358.12,358.12,366.02,366.02,366.02,366.02,366.02,366.02,366.02,366.02,373.91,380.56,380.56,389.29,391.79,391.79,385.55,377.24,377.24,373.50,370.59,370.59,358.12,358.12,351.47,343.98,334.84,326.94,316.96,316.96,313.64,313.22,313.22,312.81,312.81,312.81,312.39,312.39,312.81,312.81,312.81,313.22,313.22,313.22,313.64,314.05,314.05,314.05,316.96,319.04,319.04,316.96,316.96,316.96,314.05,314.05,314.05,313.64,313.22,313.22,313.22,312.81,312.81,312.81,312.81,312.39,312.39,312.39,312.39,312.39,312.39,312.39,312.81,313.22,313.22,313.64,316.96,321.12,321.12,324.86,331.51,339.41,339.41,350.22,358.12,367.68,367.68,370.59,377.24,380.15,380.15,385.55,391.79,389.29,389.29,380.56,373.91,366.02,366.02,366.02,366.02,366.02,366.02,366.02,366.02,366.02,366.02,366.02,366.02,366.02,366.02,366.02,366.02,366.02,366.02,366.02,366.02,366.02,366.02,373.91,373.91,373.91,373.91,373.91,373.91,373.91,373.91,373.91,373.91,373.91,373.91,373.91,373.91,373.91,373.91,373.91,373.91,373.91,373.91,373.91,373.91,373.91,373.91,380.56,380.56,380.56,380.56,380.56,380.56,380.56,380.56,380.56,380.56,380.56,380.56,380.56,380.56,380.56,380.56,380.56,380.56,380.56,380.56,380.56,380.56,380.56,380.56,380.56,380.56,380.56,380.56,380.56,380.56,380.56,380.56,380.56,380.56,380.56,380.56,380.56,380.56,380.56,380.56,380.56,380.56,373.91,373.91,373.91,373.91,373.91,373.91,373.91,373.91,373.91,373.91,373.91,373.91,373.91,373.91,373.91,380.56,380.56,380.56,380.56,380.56,380.56,380.56,380.56,380.56,380.56,380.56,380.56,380.56,380.56,380.56,380.56,380.56,380.56,380.56,380.56,380.56,380.56,380.56,380.56,380.56,380.56,380.56,380.56,380.56,380.56,380.56,380.56,380.56,373.91,373.91,373.91,373.91,373.91,373.91,373.91,373.91,373.91,373.91,373.91,373.91,380.56,380.56,380.56,380.56,380.56,380.56,380.56,380.56,373.91,373.91,373.91,380.56,380.56,380.56,380.56,380.56,380.56,380.56,380.56,380.56,380.56,380.56,380.56,380.56,380.56,380.56,380.56,380.56,380.56,380.56,380.56,380.56,380.56,380.56,380.56,380.56,380.56,380.56,380.56,380.56,380.56,380.56,380.56,380.56,389.29,389.29,389.29,389.29,389.29,389.29,389.29,389.29,389.29,389.29,389.29,389.29,389.29,389.29,380.56,380.56,380.56,380.56,380.56,380.56,380.56,380.56,380.56,380.56,380.56,380.56,380.56,380.56,380.56,380.56,380.56,380.56,380.56,380.56,380.56,380.56,380.56,380.56,389.29,389.29,389.29,389.29,389.29,389.29,389.29,389.29,389.29,389.29,389.29,389.29,389.29,389.29,389.29,389.29,389.29,380.56,389.29,389.29,389.29,389.29,389.29,389.29,389.29,389.29,389.29,389.29,389.29,389.29,389.29,389.29,389.29,389.29,389.29,380.56,380.56,380.56,380.56,380.56,380.56,380.56
366.02,366.02,366.02,366.02,366.02,366.02,366.02,366.02,366.02,366.02,366.02,373.91,373.91,373.91,373.91,373.91,373.91,373.91,373.91,373.91,373.91,373.91,373.91,373.91,373.91,373.91,373.91,373.91,373.91,373.91,373.91,373.91,373.91,366.02,366.02,366.02,366.02,366.02,366.02,366.02,366.02,366.02,366.02,366.02,366.02,366.02,366.02,366.02,366.02,358.12,358.12,358.12,358.12,358.12,358.12,358.12,358.12,358.12,358.12,358.12,358.12,358.12,366.02,366.02,366.02,366.02,366.02,373.91,380.56,380.56,389.29,391.79,391.79,385.55,380.15,380.15,377.24,370.59,370.59,363.94,363.94,356.45,345.65,338.16,324.45,316.96,316.96,316.96,313.22,313.22,312.81,312.81,312.81,312.39,312.39,312.81,312.81,312.81,313.22,313.22,313.22,313.64,314.05,314.05,314.05,316.96,319.04,319.04,316.96,316.96,316.96,316.96,314.05,314.05,313.64,313.64,313.64,313.22,313.22,313.22,312.81,312.81,312.39,312.39,312.39,312.39,312.39,312.39,312.39,312.81,313.22,313.22,313.64,316.96,321.12,321.12,324.86,331.51,339.41,339.41,350.22,358.12,367.68,367.68,370.59,377.24,380.15,380.15,385.55,391.79,389.29,389.29,380.56,373.91,366.02,366.02,366.02,366.02,366.02,366.02,366.02,366.02,366.02,366.02,366.02,366.02,366.02,366.02,366.02,366.02,366.02,366.02,366.02,366.02,366.02,366.02,373.91,373.91,373.91,373.91,373.91,373.91,373.91,373.91,373.91,373.91,373.91,373.91,373.91,373.91,373.91,373.91,373.91,373.91,373.91,373.91,373.91,373.91,373.91,373.91,373.91,373.91,373.91,373.91,373.91,380.56,380.56,380.56,380.56,380.56,380.56,380.56,380.56,380.56,380.56,380.56,380.56,380.56,380.56,380.56,380.56,380.56,380.56,380.56,380.56,380.56,380.56,380.56,380.56,380.56,380.56,380.56,380.56,380.56,380.56,373.91,373.91,373.91,373.91,373.91,373.91,373.91,373.91,373.91,373.91,373.91,373.91,373.91,373.91,373.91,373.91,373.91,373.91,373.91,373.91,373.91,373.91,373.91,373.91,373.91,373.91,380.56,380.56,380.56,380.56,380.56,380.56,380.56,380.56,380.56,380.56,380.56,380.56,373.91,373.91,373.91,373.91,373.91,373.91,373.91,373.91,373.91,373.91,373.91,373.91,373.91,373.91,373.91,373.91,373.91,373.91,373.91,373.91,373.91,373.91,373.91,373.91,373.91,373.91,373.91,373.91,373.91,380.56,380.56,380.56,380.56,380.56,380.56,380.56,380.56,373.91,373.91,373.91,380.56,380.56,380.56,380.56,380.56,380.56,380.56,380.56,380.56,380.56,380.56,380.56,380.56,380.56,380.56,380.56,380.56,380.56,380.56,380.56,380.56,380.56,380.56,380.56,380.56,380.56,380.56,380.56,380.56,380.56,380.56,380.56,380.56,389.29,389.29,389.29,389.29,389.29,389.29,389.29,389.29,389.29,389.29,389.29,389.29,389.29,389.29,380.56,380.56,380.56,380.56,380.56,380.56,380.56,380.56,380.56,380.56,380.56,380.56,380.56,380.56,380.56,380.56,380.56,380.56,380.56,380.56,380.56,380.56,380.56,380.56,389.29,389.29,389.29,389.29,389.29,389.29,389.29,389.29,389.29,389.29,389.29,389.29,389.29,389.29,389.29,389.29,389.29,389.29,389.29,389.29,389.29,389.29,389.29,389.29,389.29,389.29,389.29,389.29,389.29,389.29,389.29,389.29,389.29,389.29,389.29,380.56,380.56,380.56,380.56,380.56,380.56,380.56
