376.31,356.91,344.63,344.63,344.63,339.08,339.08,339.08,339.08,339.08,339.08,339.08,339.08,339.08,339.08,339.08,339.08,339.08,339.08,339.08,335.52,335.52,335.52,335.52,339.08,339.08,339.08,339.08,339.08,339.08,339.08,339.08,339.08,339.08,339.08,339.08,339.08,339.08,339.08,339.08,339.08,339.08,344.63,344.63,356.91,356.91,356.91,356.91,376.31,376.31,376.31,392.16,392.16,392.16,392.16,392.16,392.16,376.31,376.31,376.31,376.31,376.31,376.31,376.31,376.31,356.91,376.31,376.31,376.31,392.16,392.16,392.16,393.35,393.35,393.35,389.38,389.38,389.38,387.40,387.40,387.40,387.40,387.40,387.40,387.40,384.63,384.63,387.40,387.40,387.40,387.40,387.40,389.38,389.38,389.38,389.38,389.38,389.38,389.38,389.38,389.38,393.35,393.35,393.35,392.16,392.16,376.31,376.31,356.91,356.91,376.31,376.31,392.16,392.16,393.35,393.35,393.35,389.38,389.38,389.38,389.38,389.38,389.38,393.35,393.35,392.16,392.16,376.31,376.31,356.91,356.91,356.91,356.91,356.91,376.31,376.31,376.31,376.31,392.16,392.16,392.16,392.16,392.16,392.16,376.31,356.91,356.91,356.91,356.91,356.91,356.91,344.63,344.63,344.63,344.63,339.08,339.08,339.08,339.08,339.08,339.08,339.08,339.08,339.08,339.08,339.08,339.08,335.52,335.52,335.52,335.52,335.52,335.52,335.52,335.52,335.52,335.52,335.52,335.52,337.50,338.69,339.08,339.48,339.87,341.46,344.63,344.63,344.63,344.63,344.63,344.63,344.63,344.63,344.63,344.63,344.63,344.63,344.63,344.63,344.63,344.63,344.63,344.63,339.08,339.08,339.08,339.08,339.08,339.08,339.08,339.08,339.08,339.08,339.08,339.08,339.08,339.08,339.08,339.08,339.08,339.08,339.08,339.08,339.08,339.08,339.08,339.08,339.08,339.08,339.08,339.08,339.08,339.08,339.08,339.08,339.08,339.08,339.08,339.08,339.08,339.08,339.08,339.08,339.08,339.08,339.08,339.08,339.08,339.08,344.63,344.63,344.63,344.63,344.63,344.63,344.63,344.63,344.63,344.63,344.63,344.63,344.63,344.63,339.08,339.08,339.08,339.08,339.08,339.08,339.08,339.08,339.08,339.08,344.63,344.63,344.63,344.63,344.63,344.63,344.63,344.63,344.63,344.63,344.63,339.08,339.08,339.08,339.08,339.08,339.08,344.63,344.63,344.63,344.63,344.63,344.63,344.63,344.63,344.63,344.63,344.63,344.63,344.63,344.63,344.63,344.63,344.63,344.63,344.63,344.63,344.63,344.63,344.63,344.63,344.63,344.63,344.63,344.63,344.63,344.63,344.63,344.63,344.63,344.63,344.63,344.63,344.63,344.63,344.63,344.63,344.63,344.63,344.63,344.63,344.63,344.63,344.63,344.63,344.63,344.63,344.63,344.63,344.63,344.63,344.63,344.63,344.63,339.08,344.63,344.63,344.63,344.63,344.63,344.63,344.63,344.63,356.91,356.91,356.91,356.91,356.91,356.91,356.91,356.91,356.91,356.91,356.91,356.91,356.91,356.91,356.91,356.91,376.31,376.31,376.31,376.31,376.31,356.91,356.91,356.91,356.91,356.91,356.91,356.91,344.63,344.63,339.08,339.08,339.08,339.08,339.08,339.08,339.08,339.08,339.08,339.08,339.08,339.08,339.08,339.08,339.08,339.08,339.08,339.08,344.63,344.63,344.63,344.63,344.63,344.63,344.63,344.63,344.63,344.63,344.63,344.63,344.63,344.63,344.63,356.91,356.91,356.91,356.91,356.91,356.91,356.91
376.31,356.91,344.63,344.63,344.63,339.08,339.08,339.08,339.08,339.08,339.08,339.08,339.08,339.08,339.08,339.08,339.08,339.08,339.08,335.52,335.52,335.52,335.52,335.52,335.52,339.08,339.08,339.08,339.08,339.08,339.08,339.08,339.08,339.08,344.63,344.63,339.08,339.08,339.08,339.48,339.48,340.67,344.23,347.80,353.34,356.91,356.91,376.31,376.31,392.16,392.16,392.16,392.16,392.16,392.16,392.16,392.16,392.16,392.16,376.31,376.31,376.31,376.31,373.94,373.94,370.77,376.31,376.31,376.31,383.05,388.59,392.16,393.35,393.35,393.35,390.18,389.38,389.38,387.40,387.40,387.40,387.40,387.40,387.40,384.63,384.63,384.63,387.40,387.40,387.40,387.40,387.40,388.99,387.40,387.40,387.40,389.38,389.38,389.38,389.38,389.38,393.35,393.35,393.35,392.16,392.16,376.31,376.31,356.91,356.91,376.31,376.31,392.16,392.16,393.35,393.35,393.35,389.38,389.38,389.38,389.38,389.38,389.38,389.38,393.35,392.16,392.16,376.31,376.31,376.31,376.31,376.31,376.31,376.31,376.31,376.31,392.16,392.16,392.16,392.16,392.16,392.16,392.16,392.16,376.31,376.31,376.31,376.31,356.91,356.91,356.91,356.91,344.63,344.63,344.63,339.08,339.08,339.08,339.08,339.08,339.08,339.08,339.08,339.08,339.08,339.08,339.08,339.08,339.08,335.52,335.52,335.52,335.52,335.52,335.52,335.52,335.52,335.52,335.52,337.10,337.89,338.69,339.87,341.46,342.65,344.63,344.63,344.63,344.63,344.63,344.63,344.63,344.63,356.91,356.91,356.91,344.63,344.63,344.63,344.63,344.63,344.63,344.63,344.63,339.08,339.08,339.08,339.08,339.08,339.08,339.08,339.08,339.08,339.08,339.08,339.08,339.08,339.08,339.08,339.08,339.08,339.08,339.08,339.08,339.08,339.08,339.08,339.08,339.08,339.08,339.08,339.08,339.08,339.08,339.08,339.08,339.08,339.08,339.08,339.08,339.08,339.08,339.08,339.08,339.08,339.08,339.08,339.08,339.08,344.63,344.63,344.63,344.63,344.63,344.63,344.63,344.63,344.63,344.63,344.63,344.63,344.63,344.63,339.08,339.08,339.08,339.08,339.08,339.08,339.08,339.08,339.08,339.08,344.63,344.63,344.63,344.63,344.63,344.63,344.63,344.63,344.63,344.63,344.63,344.63,344.63,344.63,339.08,339.08,339.08,344.63,344.63,344.63,344.63,344.63,344.63,344.63,344.63,344.63,344.63,344.63,344.63,344.63,344.63,344.63,344.63,344.63,344.63,344.63,344.63,344.63,344.63,344.63,344.63,344.63,344.63,344.63,344.63,344.63,344.63,344.63,344.63,344.63,344.63,344.63,344.63,344.63,344.63,344.63,344.63,344.63,344.63,344.63,344.63,344.63,344.63,344.63,344.63,344.63,344.63,344.63,344.63,344.63,344.63,344.63,344.63,344.63,339.08,344.63,344.63,344.63,344.63,344.63,344.63,344.63,344.63,356.91,356.91,356.91,356.91,356.91,356.91,356.91,356.91,356.91,356.91,356.91,356.91,356.91,356.91,356.91,356.91,376.31,376.31,376.31,376.31,376.31,376.31,356.91,356.91,356.91,356.91,356.91,356.91,344.63,344.63,339.08,339.08,339.08,339.08,339.08,339.08,339.08,339.08,339.08,339.08,339.08,339.08,339.08,339.08,339.08,339.08,339.08,339.08,344.63,344.63,344.63,344.63,344.63,344.63,344.63,344.63,344.63,344.63,344.63,344.63,344.63,344.63,344.63,356.91,356.91,356.91,356.91,356.91,356.91,356.91
376.31,356.91,344.63,344.63,339.08,339.08,339.08,339.08,339.08,339.08,339.08,339.08,339.08,339.08,339.08,339.08,339.08,339.08,335.52,335.52,335.52,335.52,335.52,335.52,335.52,339.08,339.08,339.08,339.08,339.08,339.08,339.08,344.63,344.63,344.63,344.63,339.08,340.27,339.48,339.48,339.87,341.46,345.42,351.76,354.53,356.91,356.91,376.31,392.16,392.16,392.16,392.16,392.16,392.16,392.16,392.16,392.16,392.16,392.16,376.31,376.31,376.31,376.31,367.20,362.45,372.75,376.31,376.31,376.31,378.69,373.15,388.20,389.78,389.78,392.55,388.59,389.78,388.99,388.20,387.80,385.42,381.07,373.15,374.73,384.63,384.63,384.63,383.84,384.24,385.03,387.80,388.20,387.80,387.40,387.40,387.40,389.38,389.38,389.38,389.38,393.35,393.35,393.35,393.35,392.55,389.78,379.48,371.96,362.85,367.60,376.31,376.31,376.31,385.03,391.36,391.76,393.35,389.38,389.38,389.38,389.38,389.38,389.38,389.38,393.35,392.16,392.16,376.31,376.31,376.31,376.31,376.31,376.31,376.31,392.16,392.16,392.16,392.16,390.57,390.97,391.76,391.76,390.57,385.03,376.31,376.31,376.31,376.31,356.91,356.91,356.91,356.91,344.63,344.63,344.63,344.63,339.08,339.08,339.08,339.08,339.08,339.08,339.08,339.08,339.08,339.08,339.08,339.08,339.08,335.52,335.52,335.52,335.52,335.52,335.52,335.52,335.52,336.31,336.71,337.89,339.08,339.48,340.27,340.67,342.65,343.84,344.63,344.63,344.63,344.63,344.63,344.63,344.63,356.91,356.91,356.91,344.63,344.63,344.63,344.63,344.63,344.63,344.63,344.63,344.63,339.08,339.08,339.08,339.08,339.08,339.08,339.08,339.08,339.08,339.08,339.08,339.08,339.08,339.08,339.08,339.08,339.08,339.08,339.08,339.08,339.08,339.08,339.08,339.08,339.08,339.08,339.08,339.08,339.08,339.08,339.08,339.08,339.08,339.08,339.08,339.08,339.08,339.08,339.08,339.08,339.08,339.08,339.08,339.08,344.63,344.63,344.63,344.63,344.63,344.63,344.63,344.63,344.63,344.63,344.63,339.08,339.08,339.08,339.08,339.08,339.08,339.08,339.08,339.08,339.08,339.08,339.08,339.08,344.63,344.63,344.63,344.63,344.63,344.63,344.63,344.63,344.63,344.63,344.63,344.63,344.63,344.63,339.08,339.08,339.08,339.08,339.08,339.08,344.63,344.63,344.63,344.63,344.63,344.63,344.63,344.63,344.63,344.63,344.63,344.63,344.63,344.63,344.63,344.63,344.63,344.63,344.63,344.63,344.63,344.63,344.63,344.63,344.63,344.63,344.63,344.63,344.63,344.63,344.63,344.63,344.63,344.63,344.63,344.63,344.63,344.63,344.63,344.63,339.08,339.08,344.63,344.63,339.08,344.63,344.63,344.63,344.63,344.63,339.08,339.08,339.08,339.08,339.08,339.08,339.08,339.08,339.08,344.63,344.63,344.63,344.63,344.63,344.63,356.91,356.91,356.91,356.91,356.91,356.91,356.91,356.91,356.91,356.91,356.91,356.91,356.91,356.91,356.91,376.31,376.31,376.31,376.31,376.31,356.91,356.91,356.91,356.91,356.91,356.91,344.63,344.63,339.08,339.08,339.08,339.08,339.08,339.08,339.08,339.08,339.08,339.08,339.08,339.08,339.08,339.08,339.08,339.08,339.08,339.08,339.08,339.08,339.08,339.08,339.08,344.63,344.63,344.63,344.63,344.63,344.63,344.63,344.63,344.63,344.63,344.63,344.63,344.63,356.91,356.91,344.63,344.63
376.31,356.91,344.63,344.63,339.08,339.08,339.08,339.08,339.08,339.08,339.08,339.08,339.08,339.08,339.08,339.08,335.52,335.52,335.52,335.52,335.52,335.52,335.52,335.52,335.52,339.08,339.08,339.08,339.08,339.08,339.08,339.08,344.63,344.63,344.63,343.84,341.46,341.06,339.87,339.87,340.27,342.25,348.19,354.13,356.91,356.91,361.66,373.54,385.03,389.78,390.97,391.76,392.16,392.16,392.16,389.38,384.63,373.94,364.43,356.91,350.96,347.80,345.82,351.76,352.55,358.09,369.98,364.83,362.85,360.07,360.47,361.66,363.64,366.41,369.18,367.20,366.41,368.79,372.35,372.35,366.41,363.24,359.28,354.13,354.93,362.85,368.39,362.05,362.85,366.41,371.96,377.11,385.03,387.80,387.80,388.20,388.99,389.38,390.57,393.35,393.35,393.35,393.35,392.16,390.97,390.97,380.27,371.56,366.81,368.79,372.35,377.11,382.25,383.44,390.97,391.36,392.16,390.57,389.78,389.78,389.78,389.78,389.78,390.57,392.16,390.97,388.20,380.67,377.50,377.11,376.31,376.31,376.31,376.31,392.16,392.16,392.16,390.97,391.36,391.36,391.36,389.38,385.82,380.27,377.11,376.31,376.31,376.31,356.91,356.91,356.91,356.91,344.63,344.63,344.63,344.63,339.08,339.08,339.08,339.08,339.08,339.08,339.08,339.08,339.08,339.08,335.52,335.52,335.52,335.52,335.52,335.52,335.52,335.52,335.52,335.52,335.52,336.71,338.29,338.69,339.08,339.87,340.27,341.46,342.65,342.65,339.08,339.08,344.63,344.63,344.63,344.63,344.63,356.91,356.91,356.91,344.63,344.63,344.63,344.63,344.63,344.63,344.63,344.63,344.63,339.08,339.08,339.08,339.08,339.08,339.08,339.08,339.08,339.08,339.08,339.08,339.08,339.08,339.08,339.08,339.08,339.08,339.08,339.08,339.08,339.08,339.08,339.08,339.08,339.08,339.08,339.08,339.08,339.08,339.08,339.08,339.08,339.08,339.08,339.08,339.08,339.08,339.08,339.08,339.08,339.08,339.08,339.08,339.08,339.08,339.08,339.08,344.63,344.63,344.63,344.63,344.63,344.63,339.08,339.08,339.08,339.08,339.08,339.08,339.08,339.08,339.08,339.08,339.08,339.08,339.08,339.08,339.08,344.63,344.63,344.63,344.63,344.63,344.63,344.63,344.63,344.63,344.63,344.63,344.63,344.63,339.08,339.08,339.08,339.08,339.08,339.08,339.08,344.63,344.63,339.08,339.08,339.08,339.08,344.63,344.63,344.63,344.63,344.63,344.63,344.63,344.63,344.63,344.63,344.63,344.63,344.63,344.63,344.63,344.63,344.63,344.63,344.63,344.63,344.63,344.63,344.63,344.63,344.63,344.63,344.63,344.63,344.63,344.63,344.63,344.63,344.63,344.63,339.08,339.08,344.63,344.63,339.08,344.63,344.63,344.63,344.63,344.63,339.08,339.08,339.08,339.08,339.08,339.08,339.08,339.08,339.08,339.08,339.08,339.08,344.63,344.63,344.63,344.63,344.63,344.63,344.63,356.91,356.91,356.91,356.91,356.91,356.91,356.91,356.91,356.91,356.91,356.91,356.91,356.91,356.91,356.91,356.91,356.91,356.91,356.91,356.91,356.91,356.91,344.63,344.63,339.08,339.08,339.08,339.08,339.08,339.08,339.08,339.08,339.08,339.08,339.08,339.08,339.08,339.08,339.08,339.08,339.08,339.08,339.08,339.08,339.08,339.08,339.08,339.08,339.08,339.08,339.08,344.63,344.63,344.63,344.63,344.63,344.63,344.63,344.63,344.63,344.63,344.63,344.63,344.63
376.31,356.91,344.63,344.63,339.08,339.08,339.08,339.08,339.08,339.08,339.08,339.08,339.08,339.08,339.08,339.08,339.08,339.08,335.52,335.52,335.52,335.52,335.52,335.52,335.52,339.08,339.08,339.08,339.08,339.08,339.08,339.08,344.63,344.63,344.63,343.84,343.44,342.25,341.06,340.67,341.06,343.44,350.17,354.93,357.70,358.49,364.04,373.54,383.05,388.99,390.97,391.76,392.16,388.99,378.69,371.16,357.70,355.72,343.84,314.13,314.13,314.13,314.13,314.13,337.10,342.65,345.02,352.15,347.00,340.67,337.89,339.48,343.44,347.00,348.59,350.57,350.96,351.36,349.78,348.98,349.78,338.69,316.11,316.11,316.11,341.46,347.80,345.02,344.23,347.80,355.72,359.68,361.66,364.43,366.81,374.33,381.07,388.99,391.76,393.35,393.35,393.35,393.35,392.16,391.36,379.48,364.43,358.89,354.53,353.34,357.70,360.47,366.81,373.94,378.29,387.01,391.76,390.97,390.18,383.84,385.82,386.61,387.01,387.80,388.20,387.01,384.24,379.09,375.52,377.11,376.31,376.31,376.31,376.31,392.16,392.16,392.16,391.76,391.76,387.01,381.46,375.92,373.54,377.11,377.50,376.31,376.31,376.31,376.31,356.91,356.91,356.91,344.63,344.63,344.63,344.63,339.08,339.08,339.08,339.08,339.08,339.08,339.08,339.08,339.08,339.08,335.52,335.52,335.52,335.52,335.52,335.52,335.52,335.52,335.52,335.52,335.52,337.50,338.69,339.08,339.08,339.08,339.08,339.08,339.08,344.63,344.63,339.08,344.63,344.63,344.63,344.63,344.63,356.91,356.91,356.91,344.63,344.63,344.63,344.63,344.63,344.63,344.63,344.63,344.63,344.63,344.63,339.08,339.08,339.08,339.08,339.08,339.08,339.08,339.08,339.08,339.08,339.08,339.08,339.08,339.08,339.08,339.08,339.08,339.08,339.08,339.08,339.08,339.08,339.08,339.08,339.08,339.08,339.08,339.08,339.08,339.08,339.08,339.08,339.08,339.08,339.08,339.08,339.08,339.08,339.08,339.08,339.08,339.08,339.08,339.08,339.08,344.63,344.63,344.63,344.63,344.63,344.63,339.08,339.08,339.08,339.08,339.08,339.08,339.08,339.08,339.08,339.08,339.08,339.08,339.08,339.08,344.63,344.63,344.63,344.63,344.63,344.63,344.63,344.63,344.63,344.63,344.63,344.63,344.63,344.63,339.08,339.08,339.08,339.08,339.08,339.08,339.08,344.63,344.63,344.63,344.63,344.63,339.08,344.63,344.63,344.63,344.63,344.63,344.63,344.63,344.63,344.63,344.63,344.63,344.63,344.63,344.63,344.63,344.63,344.63,344.63,344.63,344.63,344.63,344.63,344.63,344.63,344.63,344.63,344.63,344.63,344.63,339.08,344.63,344.63,344.63,344.63,339.08,339.08,344.63,344.63,339.08,344.63,344.63,344.63,344.63,339.08,339.08,339.08,339.08,339.08,339.08,339.08,339.08,339.08,339.08,339.08,339.08,339.08,344.63,344.63,344.63,344.63,344.63,344.63,344.63,344.63,344.63,344.63,344.63,344.63,356.91,356.91,356.91,356.91,356.91,356.91,356.91,356.91,356.91,356.91,356.91,356.91,356.91,356.91,356.91,344.63,344.63,344.63,344.63,339.08,339.08,339.08,339.08,339.08,339.08,339.08,339.08,339.08,339.08,339.08,339.08,335.52,335.52,335.52,335.52,335.52,335.52,335.52,335.52,339.08,339.08,339.08,339.08,339.08,339.08,339.08,339.08,339.08,339.08,339.08,339.08,344.63,344.63,344.63,344.63,344.63,344.63,344.63,344.63
356.91,344.63,344.63,344.63,339.08,339.08,335.52,339.08,339.08,339.08,339.08,339.08,339.08,339.08,339.08,339.08,339.08,339.08,335.52,335.52,335.52,335.52,335.52,335.52,335.52,339.08,339.08,339.08,339.08,339.08,339.08,344.63,344.63,344.63,344.63,344.23,343.84,343.44,342.25,341.85,343.04,344.63,352.55,356.51,358.89,359.68,365.22,373.94,382.25,387.80,390.57,388.20,381.46,369.98,356.11,352.15,337.50,314.13,314.13,314.13,314.13,314.13,314.13,314.13,321.65,331.95,327.99,314.13,314.13,314.13,314.13,314.13,314.13,314.13,324.82,322.45,320.07,319.67,339.48,338.69,320.86,321.65,316.11,316.11,316.11,316.11,316.11,316.11,316.11,316.11,327.20,336.71,344.23,346.61,350.96,355.32,362.45,366.41,378.29,392.55,393.35,390.18,390.18,389.38,366.81,354.93,346.61,339.87,337.10,339.08,345.02,347.40,350.17,350.57,353.34,356.11,356.51,360.47,355.32,354.13,356.51,359.68,361.66,362.85,363.24,363.24,362.05,361.66,363.24,368.79,376.71,376.71,377.90,380.67,387.80,390.97,391.76,389.38,387.01,376.31,364.04,366.41,363.64,371.16,375.92,376.31,376.31,376.31,376.31,356.91,356.91,356.91,344.63,344.63,344.63,339.08,339.08,339.08,339.08,339.08,339.08,339.08,339.08,339.08,339.08,339.08,335.52,335.52,335.52,335.52,335.52,335.52,335.52,335.52,335.52,335.52,339.08,339.08,339.08,339.08,339.08,339.08,344.63,344.63,344.63,344.63,344.63,344.63,344.63,344.63,344.63,344.63,344.63,344.63,344.63,356.91,356.91,356.91,356.91,356.91,356.91,356.91,356.91,344.63,344.63,344.63,344.63,339.08,339.08,339.08,339.08,335.52,335.52,335.52,335.52,335.52,335.52,335.52,339.08,339.08,339.08,339.08,339.08,339.08,339.08,339.08,339.08,339.08,335.52,335.52,335.52,335.52,335.52,335.52,335.52,335.52,335.52,335.52,335.52,335.52,339.08,339.08,339.08,339.08,339.08,339.08,339.08,339.08,339.08,339.08,339.08,339.08,339.08,339.08,339.08,344.63,344.63,344.63,339.08,339.08,339.08,339.08,339.08,339.08,339.08,339.08,339.08,339.08,339.08,339.08,339.08,344.63,344.63,344.63,344.63,344.63,344.63,344.63,344.63,344.63,344.63,344.63,344.63,344.63,339.08,339.08,339.08,339.08,339.08,339.08,339.08,339.08,339.08,344.63,344.63,344.63,344.63,344.63,344.63,344.63,344.63,344.63,344.63,344.63,344.63,344.63,344.63,344.63,344.63,344.63,344.63,344.63,344.63,344.63,344.63,344.63,344.63,344.63,344.63,344.63,344.63,344.63,344.63,344.63,344.63,344.63,344.63,344.63,339.08,344.63,344.63,344.63,344.63,339.08,339.08,344.63,344.63,344.63,344.63,344.63,344.63,344.63,339.08,339.08,339.08,339.08,339.08,339.08,339.08,339.08,339.08,339.08,339.08,339.08,339.08,344.63,344.63,344.63,344.63,344.63,344.63,344.63,344.63,344.63,344.63,344.63,344.63,356.91,356.91,356.91,356.91,356.91,356.91,356.91,356.91,356.91,356.91,356.91,356.91,356.91,356.91,356.91,344.63,344.63,344.63,344.63,339.08,339.08,339.08,339.08,339.08,339.08,339.08,339.08,339.08,339.08,339.08,339.08,335.52,335.52,335.52,335.52,335.52,335.52,335.52,335.52,339.08,339.08,339.08,339.08,339.08,339.08,339.08,339.08,339.08,339.08,339.08,339.08,344.63,344.63,344.63,344.63,344.63,344.63,344.63,344.63
356.91,344.63,339.08,339.08,339.08,339.08,335.52,335.52,339.08,339.08,339.08,339.08,335.52,335.52,335.52,335.52,335.52,335.52,335.52,335.52,335.52,335.52,335.52,335.52,335.52,339.08,339.08,339.08,339.08,339.08,339.08,344.63,344.63,344.63,344.63,345.02,344.63,344.23,343.44,342.65,344.23,346.61,354.13,357.30,360.07,361.26,366.41,373.54,381.07,386.61,384.24,373.15,362.85,352.15,334.73,319.28,322.45,314.13,314.13,314.13,314.13,314.13,314.13,314.13,318.09,320.86,320.07,314.13,314.13,314.13,314.13,314.13,314.13,314.13,318.09,318.49,316.11,316.11,316.11,318.09,319.28,319.28,316.11,316.11,316.11,316.11,316.11,316.11,316.11,316.11,319.67,317.30,320.07,319.28,319.67,340.27,342.65,347.40,353.74,356.91,359.68,362.85,362.85,360.07,354.13,331.95,320.07,315.71,315.71,315.71,321.65,318.88,318.88,331.16,337.50,337.50,338.69,348.98,336.71,336.31,338.69,342.25,343.44,344.23,343.84,343.44,342.65,341.85,345.82,349.78,366.41,370.77,373.54,379.88,378.29,377.11,377.11,371.56,364.04,356.91,350.96,332.35,343.84,352.55,357.70,366.81,368.79,366.02,356.91,356.91,356.91,356.91,352.55,347.00,344.23,341.46,339.87,339.87,339.08,339.08,339.08,339.08,339.08,339.08,339.08,339.08,335.52,335.52,335.52,335.52,335.52,335.52,335.52,339.08,339.08,339.08,339.08,339.08,344.63,344.63,344.63,344.63,344.63,344.63,344.63,344.63,344.63,344.63,344.63,344.63,344.63,344.63,344.63,356.91,356.91,356.91,356.91,356.91,356.91,356.91,356.91,356.91,356.91,356.91,344.63,344.63,344.63,339.08,339.08,339.08,339.08,335.52,335.52,335.52,335.52,335.52,335.52,335.52,335.52,335.52,339.08,339.08,339.08,339.08,339.08,339.08,339.08,335.52,335.52,335.52,335.52,335.52,335.52,335.52,335.52,335.52,335.52,335.52,335.52,335.52,335.52,339.08,339.08,339.08,339.08,339.08,339.08,339.08,339.08,339.08,339.08,339.08,339.08,339.08,339.08,339.08,339.08,339.08,339.08,339.08,339.08,339.08,339.08,339.08,339.08,339.08,339.08,339.08,339.08,339.08,339.08,344.63,344.63,344.63,344.63,344.63,344.63,344.63,344.63,344.63,344.63,344.63,344.63,344.63,339.08,339.08,339.08,339.08,339.08,339.08,339.08,339.08,339.08,344.63,344.63,344.63,344.63,344.63,344.63,344.63,344.63,344.63,344.63,344.63,344.63,344.63,344.63,344.63,344.63,344.63,344.63,344.63,344.63,344.63,344.63,344.63,344.63,344.63,344.63,344.63,344.63,344.63,344.63,344.63,344.63,344.63,344.63,344.63,339.08,343.44,343.84,344.63,344.63,339.08,339.08,344.63,344.63,344.63,344.63,344.63,344.63,344.63,339.08,339.08,339.08,339.08,339.08,339.08,339.08,339.08,339.08,339.08,339.08,339.08,339.08,339.08,344.63,344.63,344.63,344.63,344.63,344.63,344.63,344.63,344.63,344.63,344.63,344.63,344.63,356.91,356.91,356.91,356.91,356.91,356.91,356.91,356.91,356.91,356.91,356.91,356.91,344.63,344.63,344.63,344.63,339.08,339.08,339.08,339.08,339.08,339.08,339.08,339.08,339.08,339.08,339.08,335.52,335.52,335.52,335.52,335.52,335.52,335.52,335.52,335.52,335.52,335.52,335.52,335.52,335.52,335.52,335.52,339.08,339.08,339.08,339.08,339.08,339.08,339.08,344.63,344.63,344.63,344.63,344.63,344.63,344.63
356.91,344.63,339.08,339.08,339.08,339.08,335.52,335.52,339.08,339.08,339.08,339.08,335.52,335.52,335.52,335.52,335.52,335.52,335.52,335.52,335.52,335.52,335.52,335.52,335.52,339.08,339.08,339.08,339.08,339.08,339.08,344.63,344.63,344.63,344.63,344.23,344.23,344.23,344.23,343.84,345.42,347.80,353.74,358.49,360.87,362.05,367.20,373.94,380.27,379.88,371.16,350.17,332.35,319.28,315.71,314.92,314.13,314.13,314.13,314.13,314.13,314.13,314.13,314.13,314.13,314.13,314.13,314.13,314.13,314.13,314.13,314.13,314.13,314.13,315.71,315.71,315.71,316.11,316.11,316.11,316.11,316.11,316.11,316.11,316.11,316.11,316.11,316.11,316.11,316.11,316.11,316.90,316.90,316.11,316.11,316.90,316.11,322.05,329.18,338.69,338.69,349.38,343.44,339.08,332.75,321.65,315.32,315.71,315.71,315.71,315.71,315.71,316.11,316.51,315.71,315.71,322.05,321.65,320.86,314.53,314.53,314.13,314.13,314.13,314.53,315.32,315.32,315.71,320.47,337.89,344.23,344.23,347.40,350.57,359.28,362.05,357.30,347.40,340.27,342.25,326.80,320.47,321.26,327.99,341.06,350.96,350.57,355.72,356.91,356.91,356.91,356.91,352.55,350.57,345.82,342.25,340.27,339.87,339.08,339.08,339.08,339.08,339.08,339.08,338.69,338.29,337.10,336.31,335.91,335.52,336.31,335.52,335.52,339.08,339.08,339.08,339.08,339.08,344.63,344.63,344.63,344.63,344.63,344.63,344.63,344.63,344.63,344.63,344.63,344.63,344.63,344.63,344.63,356.91,356.91,356.91,356.91,356.91,356.91,356.91,356.91,356.91,356.91,356.91,344.63,344.63,344.63,339.08,339.08,339.08,339.08,335.52,335.52,335.52,335.52,335.52,335.52,335.52,335.52,335.52,339.08,339.08,339.08,339.08,339.08,335.52,335.52,335.52,335.52,335.52,335.52,335.52,335.52,335.52,335.52,335.52,335.52,335.52,335.52,335.52,335.52,335.52,339.08,339.08,339.08,339.08,339.08,339.08,339.08,339.08,339.08,339.08,339.08,339.08,339.08,339.08,339.08,339.08,339.08,339.08,339.08,339.08,339.08,339.08,339.08,339.08,339.08,339.08,339.08,339.08,339.08,344.63,344.63,344.63,344.63,344.63,344.63,344.63,344.63,344.63,344.63,344.63,344.63,344.63,339.08,339.08,339.08,339.08,339.08,339.08,339.08,339.08,339.08,344.63,344.63,344.63,344.63,344.63,344.63,344.63,344.63,344.63,344.63,344.63,344.63,344.63,344.63,344.63,344.63,344.63,344.63,344.63,344.63,344.63,344.63,344.63,344.63,344.63,344.63,344.63,344.63,344.63,344.63,344.63,344.63,344.63,344.23,344.23,344.63,343.84,343.84,344.63,344.63,339.08,339.08,344.63,344.63,339.08,344.63,344.63,339.08,339.08,339.08,339.08,339.08,339.08,339.08,339.08,339.08,339.08,339.08,339.08,339.08,339.08,339.08,339.08,344.63,344.63,344.63,344.63,344.63,344.63,344.63,344.63,344.63,344.63,344.63,344.63,344.63,344.63,356.91,356.91,356.91,356.91,356.91,356.91,356.91,356.91,344.63,344.63,344.63,344.63,344.63,344.63,344.63,339.08,339.08,339.08,339.08,339.08,339.08,339.08,339.08,339.08,339.08,335.52,335.52,335.52,335.52,335.52,335.52,335.52,335.52,335.52,335.52,335.52,335.52,335.52,335.52,335.52,335.52,335.52,335.52,335.52,335.52,335.52,339.08,339.08,339.08,339.08,339.08,339.08,339.08,339.08,339.08,339.08
356.91,344.63,339.08,339.08,339.08,335.52,335.52,335.52,335.52,335.52,335.52,335.52,335.52,335.52,335.52,335.52,335.52,335.52,335.52,335.52,335.52,335.52,335.52,335.52,335.52,335.52,335.52,339.08,339.08,339.08,339.08,339.08,342.25,343.84,345.02,344.23,343.84,343.84,343.84,343.84,344.23,347.40,352.55,359.28,361.66,363.24,368.00,371.16,368.39,364.04,348.98,330.37,316.90,315.71,315.32,314.13,314.13,314.13,314.13,314.13,314.13,314.13,314.13,314.13,314.13,314.13,314.13,314.13,314.13,314.13,314.13,314.13,314.13,314.13,315.71,315.71,315.71,315.71,316.11,316.11,316.11,316.11,316.11,316.11,316.11,316.11,316.11,316.11,316.11,316.11,316.11,316.11,316.11,316.11,316.11,316.11,316.11,316.11,316.11,324.03,318.88,315.71,315.71,315.71,315.71,315.71,315.71,315.71,315.71,315.71,315.71,315.71,315.71,315.71,316.11,316.11,315.32,315.32,315.32,314.53,314.13,314.13,314.13,314.13,314.13,315.71,315.71,315.71,315.71,316.51,326.80,330.37,333.54,334.73,333.14,324.03,322.45,316.11,319.28,324.03,320.07,318.09,316.11,316.11,316.11,316.11,335.12,341.85,339.48,340.27,347.80,352.95,351.76,350.96,346.21,340.27,339.48,338.69,339.48,339.48,339.48,338.69,339.08,339.48,338.69,338.29,337.10,336.31,336.31,335.52,336.31,335.52,335.52,339.08,339.08,339.08,339.08,339.08,344.63,344.63,344.63,356.91,356.91,356.91,356.91,356.91,356.91,356.91,356.91,356.91,356.91,356.91,356.91,356.91,356.91,356.91,356.91,356.91,356.91,356.91,356.91,356.91,356.91,356.91,356.91,356.91,356.91,344.63,339.08,339.08,339.08,335.52,335.52,335.52,335.52,335.52,335.52,335.52,335.52,335.52,339.08,339.08,339.08,339.08,339.08,339.08,339.08,335.52,335.52,335.52,335.52,335.52,335.52,335.52,335.52,335.52,335.52,335.52,335.52,335.52,335.52,335.52,339.08,339.08,339.08,339.08,339.08,339.08,339.08,339.08,339.08,339.08,339.08,339.08,339.08,339.08,339.08,339.08,339.08,339.08,339.08,339.08,339.08,339.08,339.08,339.08,339.08,339.08,339.08,344.63,344.63,344.63,344.63,344.63,344.63,344.63,344.63,344.63,344.63,344.63,344.63,344.63,344.63,344.63,339.08,339.08,339.08,339.08,339.08,339.08,339.08,339.08,339.08,344.63,344.63,344.63,344.63,344.63,344.63,344.63,344.63,344.63,344.63,344.63,344.63,344.63,344.63,344.63,344.63,344.63,344.63,344.63,344.63,344.63,344.63,344.63,344.63,344.63,344.63,344.63,344.63,344.63,344.63,344.63,344.63,344.63,344.63,344.63,344.63,344.63,344.63,344.63,344.63,339.08,339.08,344.63,344.63,344.63,344.63,344.63,339.08,339.08,339.08,339.08,339.08,339.08,339.08,339.08,339.08,339.08,339.08,339.08,339.08,339.08,339.08,339.08,344.63,344.63,344.63,344.63,344.63,344.63,344.63,344.63,344.63,344.63,344.63,344.63,344.63,344.63,356.91,356.91,356.91,356.91,356.91,356.91,356.91,356.91,344.63,344.63,344.63,344.63,344.63,344.63,344.63,339.08,339.08,339.08,339.08,339.08,339.08,339.08,339.08,339.08,339.08,335.52,335.52,335.52,335.52,335.52,335.52,335.52,335.52,335.52,335.52,335.52,335.52,335.52,335.52,335.52,335.52,335.52,335.52,335.52,335.52,335.52,339.08,339.08,339.08,339.08,339.08,339.08,339.08,339.08,339.08,339.08
356.91,344.63,339.08,339.08,339.08,335.52,335.52,335.52,335.52,335.52,335.52,335.52,335.52,335.52,335.52,335.52,335.52,335.52,335.52,335.52,335.52,335.52,335.52,335.52,335.52,335.52,335.52,335.52,335.52,339.08,339.08,339.08,341.06,341.46,343.04,343.44,343.44,343.44,343.44,343.44,343.44,346.61,351.36,358.49,361.66,364.04,365.22,361.66,356.51,339.48,327.99,316.51,315.71,314.92,314.53,314.13,314.13,314.13,314.13,314.13,314.13,314.13,314.13,314.13,314.13,314.13,314.13,314.13,314.13,314.13,314.13,314.13,314.13,314.13,315.71,315.71,315.71,315.71,316.11,316.11,316.11,316.11,316.11,316.11,316.11,316.11,316.11,316.11,316.11,316.11,316.11,316.11,316.11,316.11,316.11,316.11,316.11,316.11,316.11,316.11,315.71,315.71,315.71,315.71,314.13,314.13,314.13,314.13,315.71,315.71,315.71,315.71,315.71,316.11,315.71,315.71,315.71,315.71,314.13,314.13,314.13,314.13,314.13,314.13,314.13,314.13,315.71,315.71,315.71,316.11,315.71,316.11,316.51,319.28,318.88,316.11,316.11,316.11,317.69,318.88,318.09,318.09,316.11,316.11,316.11,316.11,316.11,316.11,316.11,316.11,332.75,343.44,346.61,344.63,338.69,335.91,335.52,333.93,334.73,333.93,334.33,335.52,336.31,336.31,335.91,335.12,333.93,333.54,335.52,335.52,336.31,335.52,335.52,339.08,339.08,339.08,339.08,339.08,344.63,344.63,344.63,356.91,356.91,356.91,356.91,356.91,356.91,356.91,356.91,356.91,356.91,356.91,356.91,356.91,356.91,356.91,356.91,356.91,356.91,356.91,376.31,376.31,376.31,356.91,356.91,356.91,356.91,344.63,339.08,339.08,339.08,339.08,335.52,335.52,335.52,335.52,335.52,335.52,335.52,335.52,339.08,339.08,339.08,339.08,339.08,339.08,339.08,335.52,335.52,335.52,335.52,335.52,335.52,335.52,335.52,335.52,335.52,335.52,335.52,335.52,335.52,335.52,339.08,339.08,339.08,339.08,339.08,339.08,339.08,339.08,339.08,339.08,339.08,335.52,335.52,339.08,339.08,339.08,339.08,339.08,339.08,339.08,339.08,339.08,339.08,339.08,339.08,339.08,344.63,344.63,344.63,344.63,344.63,344.63,344.63,344.63,344.63,344.63,344.63,344.63,344.63,344.63,344.63,344.63,339.08,339.08,339.08,339.08,339.08,339.08,339.08,339.08,339.08,339.08,344.63,344.63,344.63,339.08,342.65,343.44,343.84,343.44,343.04,339.08,344.63,344.63,344.63,344.63,344.63,344.63,344.63,344.63,344.63,344.63,344.63,344.63,344.63,344.63,344.63,344.63,344.63,344.63,344.63,344.63,344.63,344.63,344.63,344.63,344.63,344.63,344.63,344.63,344.63,339.08,339.08,344.63,344.63,344.63,344.63,344.63,339.08,339.08,339.08,339.08,339.08,339.08,339.08,339.08,339.08,339.08,339.08,339.08,339.08,339.08,339.08,339.08,344.63,344.63,344.63,344.63,344.63,344.63,344.63,344.63,344.63,344.63,344.63,344.63,344.63,344.63,356.91,356.91,356.91,356.91,356.91,344.63,344.63,344.63,344.63,344.63,344.63,344.63,344.63,344.63,339.08,339.08,339.08,339.08,339.08,339.08,339.08,339.08,339.08,339.08,339.08,335.52,335.52,335.52,335.52,335.52,335.52,335.52,335.52,335.52,335.52,335.52,335.52,335.52,335.52,335.52,335.52,335.52,335.52,335.52,335.52,335.52,335.52,335.52,339.08,339.08,339.08,339.08,339.08,339.08,339.08,339.08
356.91,344.63,339.08,339.08,339.08,339.08,335.52,335.52,335.52,335.52,335.52,335.52,335.52,335.52,335.52,335.52,335.52,335.52,335.52,335.52,335.52,335.52,335.52,335.52,335.52,335.52,335.52,335.52,335.52,339.08,339.08,339.08,340.67,340.27,340.67,341.46,341.46,342.25,342.25,342.25,342.65,345.02,349.38,355.72,360.47,361.66,356.51,350.17,335.52,326.01,316.11,315.32,314.92,314.53,314.13,314.13,314.13,314.13,314.13,314.13,314.13,314.13,314.13,314.13,314.13,314.13,314.13,314.13,314.13,314.13,314.13,314.13,314.13,314.13,315.71,315.71,315.71,315.71,316.11,316.11,316.11,316.11,316.11,316.11,316.11,316.11,316.11,316.11,316.11,316.11,316.11,316.11,316.11,316.11,316.11,316.11,316.11,316.11,316.11,316.11,315.71,315.71,315.71,315.71,314.13,314.13,314.13,314.13,315.71,315.71,315.71,315.71,315.71,315.71,315.71,315.71,315.71,315.71,314.13,314.13,314.13,314.13,314.13,314.13,314.13,314.13,315.71,315.71,315.71,316.51,316.11,316.11,316.11,317.30,317.30,316.11,316.11,316.11,317.30,316.51,316.51,316.51,316.11,316.11,316.11,316.11,316.11,316.11,316.11,316.11,321.65,328.39,333.93,333.54,332.35,327.60,324.03,326.01,327.99,329.58,329.97,330.37,329.18,328.78,328.39,328.39,329.18,329.58,330.37,332.35,336.31,336.31,336.71,337.89,338.69,339.48,339.87,341.85,344.63,344.63,344.63,356.91,356.91,356.91,356.91,356.91,356.91,356.91,356.91,356.91,356.91,356.91,356.91,356.91,356.91,356.91,356.91,356.91,356.91,356.91,376.31,376.31,376.31,356.91,356.91,356.91,356.91,344.63,339.08,339.08,339.08,339.08,335.52,335.52,335.52,335.52,335.52,335.52,335.52,335.52,339.08,339.08,339.08,339.08,339.08,339.08,339.08,335.52,335.52,335.52,335.52,335.52,335.52,335.52,335.52,335.52,335.52,335.52,335.52,335.52,335.52,335.52,339.08,339.08,339.08,339.08,339.08,339.08,339.08,339.08,339.08,339.08,335.52,335.52,335.52,335.52,335.52,335.52,339.08,339.08,338.69,339.08,339.08,339.08,339.08,339.08,339.08,339.08,344.63,344.63,344.63,344.63,344.63,344.63,344.63,344.63,344.63,344.63,344.63,344.63,344.63,344.63,344.63,344.63,339.08,339.08,339.08,339.08,339.08,339.08,339.08,339.08,339.08,339.08,339.08,339.08,339.08,341.46,341.46,342.25,342.25,342.25,342.25,341.46,339.08,339.08,339.08,339.08,344.63,344.63,344.63,344.63,344.63,344.63,344.63,344.63,344.63,344.63,344.63,344.63,344.63,344.63,344.63,344.63,344.63,344.63,344.63,344.63,339.08,339.08,339.08,339.08,339.08,339.08,339.08,344.63,344.63,339.08,344.63,344.63,339.08,339.08,339.08,339.08,339.08,339.08,339.08,339.08,339.08,339.08,339.08,339.08,339.08,339.08,339.08,344.63,344.63,344.63,344.63,344.63,344.63,344.63,344.63,344.63,344.63,344.63,344.63,344.63,344.63,344.63,344.63,344.63,344.63,344.63,344.63,344.63,344.63,344.63,344.63,344.63,344.63,344.63,339.08,339.08,339.08,339.08,339.08,339.08,339.08,339.08,339.08,339.08,335.52,335.52,335.52,335.52,335.52,335.52,335.52,335.52,335.52,335.52,335.52,335.52,335.52,335.52,335.52,335.52,335.52,335.52,335.52,335.52,335.52,335.52,335.52,335.52,335.52,335.52,335.52,335.52,335.52,335.52,339.08,339.08,339.08,339.08
356.91,344.63,344.63,344.63,339.08,339.08,335.52,335.52,335.52,335.52,335.52,335.52,335.52,335.52,335.52,335.52,335.52,335.52,335.52,335.52,335.52,335.52,335.52,335.52,335.52,335.52,335.52,335.52,335.52,339.08,339.08,339.08,339.08,339.48,339.87,339.87,339.87,340.27,340.27,340.27,340.67,342.25,347.40,350.96,356.11,356.11,345.82,332.75,324.82,316.11,315.32,314.92,314.53,314.53,314.13,314.13,314.13,314.13,314.13,314.13,314.13,314.13,314.13,314.13,314.13,314.13,314.13,314.13,314.13,314.13,314.13,314.13,314.13,314.13,315.71,315.71,315.71,315.71,315.71,315.71,316.11,316.11,316.11,316.11,316.11,316.11,316.11,316.11,316.11,316.11,316.11,316.11,316.11,316.11,316.11,316.11,316.11,316.11,316.11,316.11,315.71,315.71,315.71,315.71,314.13,314.13,314.13,314.13,315.71,315.71,315.71,315.71,315.71,315.71,315.71,314.13,314.13,314.13,314.13,314.13,314.13,314.13,314.13,314.13,314.13,314.13,315.71,315.71,315.71,315.71,316.11,316.11,316.11,316.90,317.30,316.11,316.11,316.11,317.30,316.51,316.51,316.90,316.11,316.11,316.11,316.11,316.11,316.11,316.11,316.11,316.51,318.49,320.86,327.60,322.84,317.69,317.30,316.51,318.09,318.09,318.09,318.88,320.47,321.26,321.65,322.45,323.24,324.03,324.82,327.60,329.97,335.91,337.10,338.29,338.29,341.46,344.23,346.21,348.98,356.91,356.91,356.91,356.91,356.91,356.91,356.91,356.91,356.91,356.91,356.91,356.91,356.91,356.91,356.91,356.91,356.91,356.91,356.91,356.91,376.31,376.31,376.31,376.31,356.91,356.91,356.91,356.91,344.63,344.63,344.63,339.08,339.08,335.52,335.52,335.52,335.52,335.52,335.52,335.52,335.52,339.08,339.08,339.08,339.08,339.08,339.08,339.08,339.08,335.52,335.52,335.52,335.52,335.52,335.52,335.52,335.52,335.52,335.52,335.52,335.52,339.08,339.08,339.08,339.08,339.08,339.08,339.08,339.08,339.08,339.08,339.08,339.08,335.52,335.52,335.52,335.52,335.52,335.52,339.08,339.08,339.08,339.08,339.08,339.08,339.08,339.08,344.63,344.63,344.63,344.63,344.63,344.63,344.63,356.91,356.91,356.91,344.63,344.63,344.63,344.63,344.63,344.63,344.63,344.63,339.08,339.08,339.08,339.08,339.08,339.08,339.08,339.08,339.08,339.08,339.08,339.08,339.08,339.08,341.06,339.08,339.08,339.08,339.08,339.08,339.08,339.08,339.08,339.08,344.63,344.63,344.63,344.63,344.63,344.63,344.63,344.63,344.63,344.63,344.63,344.63,344.63,344.63,344.63,344.63,344.63,344.63,344.63,344.63,339.08,339.08,339.08,339.08,339.08,339.08,339.08,339.08,339.08,339.08,339.08,339.08,339.08,339.08,339.08,339.08,339.08,339.08,339.08,339.08,339.08,339.08,339.08,339.08,339.08,339.08,339.08,344.63,344.63,344.63,344.63,344.63,344.63,344.63,344.63,344.63,344.63,344.63,344.63,344.63,344.63,344.63,344.63,344.63,344.63,344.63,344.63,344.63,344.63,344.63,344.63,344.63,344.63,344.63,339.08,339.08,339.08,339.08,339.08,339.08,339.08,339.08,339.08,339.08,335.52,335.52,335.52,335.52,335.52,335.52,335.52,335.52,335.52,335.52,335.52,335.52,335.52,335.52,335.52,335.52,335.52,335.52,335.52,335.52,335.52,335.52,332.75,335.52,335.52,335.52,335.52,335.52,335.52,335.52,335.52,339.08,339.08,339.08
356.91,344.63,344.63,344.63,339.08,339.08,339.08,339.08,335.52,335.52,335.52,335.52,335.52,335.52,335.52,335.52,335.52,335.52,335.52,335.52,335.52,335.52,335.52,335.52,335.52,335.52,335.52,335.52,335.52,339.08,339.08,339.08,339.08,339.08,339.48,338.29,338.29,338.29,338.29,338.29,338.29,338.29,341.46,344.63,348.59,343.84,334.73,325.22,318.88,316.90,315.71,315.32,314.92,314.92,314.13,314.92,314.13,314.13,314.13,314.13,314.13,314.13,314.13,314.13,314.13,314.13,314.13,314.13,314.13,314.13,314.13,314.13,314.13,314.13,314.13,315.71,315.71,315.71,315.71,315.71,316.11,316.11,316.11,316.11,316.11,316.11,316.11,316.11,316.11,316.11,316.11,316.11,316.11,316.11,316.11,316.11,316.11,316.11,315.71,315.71,315.71,315.71,315.71,315.71,315.71,315.71,315.71,315.71,315.71,315.71,315.71,315.71,315.71,315.71,315.71,314.13,314.13,314.13,314.13,314.13,314.13,314.13,314.13,314.13,314.13,314.13,315.71,315.71,315.71,315.71,316.11,316.11,316.11,316.11,316.11,316.11,316.11,316.11,316.11,316.11,316.11,316.11,316.11,316.11,316.11,316.11,316.11,316.11,316.11,316.11,316.11,317.69,318.88,319.28,316.90,316.90,316.51,316.51,316.51,316.51,316.51,316.51,317.30,316.90,316.51,316.51,316.11,316.11,317.69,320.07,327.20,329.97,334.33,337.50,341.06,344.63,347.40,351.76,354.13,356.91,356.91,356.91,356.91,356.91,356.91,356.91,356.91,356.91,356.91,356.91,356.91,356.91,356.91,356.91,356.91,356.91,356.91,356.91,376.31,376.31,376.31,376.31,376.31,376.31,356.91,356.91,356.91,356.91,344.63,344.63,344.63,339.08,339.08,339.08,335.52,335.52,335.52,335.52,335.52,335.52,339.08,339.08,339.08,339.08,339.08,339.08,339.08,339.08,335.52,335.52,335.52,335.52,335.52,335.52,335.52,335.52,335.52,335.52,335.52,335.52,339.08,339.08,339.08,339.08,339.08,339.08,339.08,339.08,335.52,335.52,335.52,335.52,335.52,335.52,335.52,335.52,335.52,335.52,335.52,339.08,339.08,339.08,339.08,339.08,339.08,339.08,344.63,344.63,344.63,344.63,344.63,344.63,344.63,356.91,356.91,356.91,344.63,344.63,344.63,344.63,344.63,344.63,344.63,344.63,339.08,339.08,339.08,339.08,339.08,339.08,339.08,339.08,339.08,339.08,339.08,339.08,339.08,339.08,339.08,339.08,339.08,339.08,339.08,339.08,339.08,339.08,339.08,339.08,339.08,339.08,339.08,344.63,344.63,344.63,344.63,344.63,344.63,344.63,344.63,344.63,344.63,344.63,344.63,344.63,344.63,344.63,344.63,344.63,339.08,339.08,339.08,339.08,339.08,339.08,339.08,339.08,339.08,339.08,339.08,339.08,339.08,339.08,339.08,339.08,339.08,339.08,339.08,339.08,339.08,339.08,339.08,339.08,344.63,344.63,344.63,344.63,344.63,344.63,344.63,344.63,344.63,344.63,344.63,344.63,344.63,344.63,344.63,344.63,344.63,344.63,344.63,344.63,344.63,344.63,344.63,344.63,344.63,344.63,344.63,344.63,344.63,344.63,339.08,339.08,339.08,339.08,339.08,339.08,339.08,339.08,339.08,339.08,335.52,335.52,335.52,335.52,335.52,335.52,335.52,335.52,335.52,335.52,335.52,335.52,335.52,335.52,335.52,335.52,335.52,335.52,335.52,335.52,335.52,335.52,332.75,335.52,335.52,335.52,335.52,335.52,335.52,335.52,335.52,339.08,339.08,339.08
356.91,344.63,344.63,344.63,339.08,339.08,339.08,339.08,335.52,335.52,335.52,335.52,335.52,335.52,335.52,335.52,335.52,335.52,335.52,335.52,335.52,335.52,335.52,335.52,335.52,335.52,335.52,335.52,335.52,335.52,335.52,339.08,339.08,338.29,337.50,337.10,337.50,337.50,337.50,337.10,337.50,337.50,337.89,340.27,337.89,335.52,325.62,320.07,317.30,316.11,315.32,314.53,314.53,314.13,314.13,314.13,314.13,314.13,314.13,314.13,314.13,314.13,314.13,314.13,314.13,314.13,314.13,314.13,314.13,314.13,314.13,314.13,314.13,314.13,314.13,315.71,315.71,315.71,315.71,315.71,316.11,316.11,316.11,316.11,316.11,316.11,316.11,316.11,316.11,316.11,316.11,316.11,316.11,316.11,316.11,316.11,316.11,316.11,315.71,315.71,315.71,315.71,315.71,315.71,315.71,315.71,315.71,315.71,315.71,315.71,315.71,315.71,315.71,315.71,315.71,315.71,315.71,314.13,314.13,314.13,314.13,314.13,314.13,314.13,314.13,314.13,315.71,315.71,315.71,315.71,316.11,316.11,316.11,316.11,316.11,316.11,316.11,316.11,316.11,316.11,316.11,316.11,316.11,316.11,316.11,316.11,316.11,316.11,316.11,316.11,316.90,316.51,316.51,316.11,316.90,316.11,316.51,316.51,316.51,316.51,316.51,316.51,316.90,316.51,316.51,316.90,316.51,316.51,316.90,316.11,320.07,326.01,328.78,333.93,340.67,347.00,352.15,356.11,356.91,356.91,356.91,356.91,376.31,376.31,376.31,376.31,376.31,356.91,356.91,356.91,356.91,356.91,356.91,356.91,356.91,356.91,376.31,376.31,376.31,376.31,376.31,376.31,376.31,376.31,376.31,376.31,356.91,356.91,344.63,344.63,344.63,339.08,339.08,339.08,339.08,335.52,335.52,335.52,339.08,339.08,339.08,339.08,339.08,339.08,339.08,339.08,339.08,339.08,335.52,335.52,335.52,335.52,335.52,335.52,335.52,335.52,335.52,335.52,335.52,335.52,339.08,339.08,339.08,339.08,339.08,339.08,339.08,339.08,335.52,335.52,335.52,335.52,335.52,335.52,335.52,335.52,335.52,335.52,339.08,339.08,339.08,339.08,339.08,339.08,339.08,344.63,344.63,344.63,344.63,344.63,344.63,344.63,344.63,344.63,344.63,344.63,344.63,344.63,344.63,344.63,344.63,344.63,344.63,344.63,339.08,339.08,339.08,339.08,339.08,339.08,339.08,339.08,339.08,339.08,339.08,339.08,339.08,339.08,339.08,339.08,339.08,339.08,339.08,339.08,339.08,339.08,339.08,339.08,339.08,339.08,339.08,344.63,344.63,344.63,344.63,344.63,344.63,344.63,344.63,344.63,344.63,344.63,344.63,344.63,344.63,344.63,344.63,344.63,339.08,339.08,339.08,339.08,339.08,339.08,339.08,339.08,344.63,344.63,344.63,339.08,339.08,339.08,339.08,339.08,339.08,339.08,339.08,339.08,339.08,344.63,344.63,344.63,344.63,344.63,344.63,344.63,344.63,344.63,344.63,344.63,344.63,344.63,344.63,344.63,344.63,344.63,344.63,344.63,344.63,344.63,344.63,344.63,344.63,344.63,344.63,344.63,344.63,344.63,344.63,344.63,344.63,344.63,339.08,339.08,339.08,339.08,339.08,339.08,339.08,339.08,339.08,339.08,339.08,335.52,335.52,335.52,335.52,335.52,335.52,335.52,335.52,335.52,335.52,335.52,335.52,335.52,335.52,332.75,332.75,332.75,332.75,332.75,332.75,332.75,332.75,332.75,332.75,332.75,335.52,335.52,335.52,335.52,335.52,335.52,335.52,335.52
356.91,344.63,344.63,344.63,339.08,339.08,339.08,339.08,335.52,335.52,335.52,335.52,335.52,335.52,335.52,335.52,335.52,335.52,335.52,335.52,335.52,335.52,335.52,335.52,335.52,335.52,335.52,335.52,335.52,335.52,335.52,339.08,339.08,337.50,337.10,336.71,336.31,337.10,336.71,336.71,336.71,337.10,337.10,337.50,335.91,333.14,321.26,317.69,316.51,315.71,314.92,314.92,314.53,314.92,314.13,314.53,314.13,314.13,314.13,314.13,314.13,314.13,314.13,314.13,314.13,314.13,314.13,314.13,314.13,314.13,314.13,314.13,314.13,314.13,314.13,314.13,314.13,315.71,315.71,315.71,316.11,316.11,316.11,316.11,316.11,316.11,316.11,316.11,316.11,316.11,316.11,316.11,316.11,316.11,316.11,316.11,316.11,316.11,315.71,315.71,315.71,315.71,315.71,315.71,314.13,314.13,315.71,315.71,315.71,315.71,315.71,315.71,315.71,315.71,314.13,314.13,314.13,314.13,314.13,314.13,314.13,314.13,314.13,314.13,314.13,314.13,314.13,314.13,315.71,315.71,315.71,315.71,316.11,316.11,316.11,316.11,316.11,316.11,316.11,316.11,316.11,316.11,316.11,316.11,316.11,316.11,316.11,316.11,316.11,316.11,316.11,316.11,316.11,316.11,316.11,316.11,316.51,316.51,316.51,316.51,316.51,316.51,316.51,316.51,316.51,316.51,316.51,316.51,316.51,316.51,316.11,317.30,321.65,330.37,335.12,346.61,354.13,357.30,357.70,356.91,356.91,376.31,376.31,376.31,376.31,376.31,376.31,356.91,356.91,356.91,356.91,356.91,356.91,357.30,358.09,356.91,376.31,376.31,376.31,376.31,376.31,376.31,376.31,376.31,376.31,376.31,356.91,356.91,344.63,344.63,344.63,339.08,339.08,339.08,339.08,335.52,335.52,335.52,339.08,339.08,339.08,339.08,339.08,339.08,339.08,339.08,339.08,335.52,335.52,335.52,335.52,335.52,335.52,335.52,335.52,335.52,335.52,335.52,335.52,335.52,339.08,339.08,339.08,339.08,339.08,339.08,339.08,339.08,335.52,335.52,335.52,335.52,335.52,335.52,335.52,335.52,335.52,335.52,339.08,339.08,339.08,339.08,339.08,339.08,339.08,344.63,344.63,344.63,344.63,344.63,344.63,344.63,344.63,344.63,344.63,344.63,344.63,344.63,344.63,344.63,344.63,344.63,344.63,339.08,339.08,339.08,339.08,339.08,339.08,339.08,339.08,339.08,339.08,339.08,339.08,339.08,339.08,339.08,339.08,339.08,339.08,339.08,335.52,335.52,335.52,335.52,335.52,339.08,339.08,339.08,339.08,339.08,339.08,339.08,344.63,344.63,344.63,344.63,344.63,344.63,344.63,344.63,344.63,344.63,344.63,344.63,344.63,344.63,339.08,339.08,339.08,339.08,339.08,339.08,339.08,339.08,344.63,344.63,344.63,339.08,339.08,339.08,339.08,339.08,339.08,339.08,339.08,339.08,339.08,344.63,344.63,344.63,344.63,344.63,344.63,344.63,344.63,344.63,344.63,344.63,344.63,344.63,344.63,344.63,344.63,344.63,344.63,344.63,344.63,344.63,344.63,344.63,344.63,344.63,344.63,344.63,344.63,344.63,339.08,339.08,339.08,339.08,339.08,339.08,339.08,339.08,339.08,339.08,339.08,339.08,339.08,339.08,339.08,335.52,335.52,335.52,335.52,335.52,335.52,335.52,335.52,335.52,335.52,335.52,335.52,332.75,332.75,332.75,332.75,332.75,332.75,332.75,332.75,332.75,332.75,332.75,332.75,332.75,332.75,335.52,335.52,335.52,335.52,335.52,335.52,335.52
356.91,344.63,344.63,344.63,339.08,339.08,339.08,339.08,335.52,335.52,335.52,335.52,335.52,335.52,335.52,335.52,335.52,335.52,335.52,335.52,335.52,335.52,335.52,335.52,335.52,335.52,335.52,335.52,335.52,335.52,335.52,335.52,335.52,335.52,335.52,336.71,336.71,336.31,337.10,336.71,337.10,337.10,336.71,337.10,334.73,329.97,323.64,316.90,316.11,315.32,314.92,314.53,314.53,314.13,314.53,314.13,314.13,314.13,314.13,314.13,314.13,314.13,314.13,314.13,314.13,314.13,314.13,314.13,314.13,314.13,314.13,314.13,314.13,314.13,314.13,314.13,314.13,315.71,315.71,315.71,315.71,316.11,316.11,316.11,316.11,316.11,316.11,316.11,316.11,316.11,316.11,316.11,316.11,316.11,316.11,315.71,315.71,315.71,315.71,315.71,315.71,315.71,315.71,315.71,314.13,314.13,315.71,315.71,315.71,315.71,315.71,315.71,315.71,315.71,314.13,314.13,314.13,314.13,314.13,314.13,314.13,314.13,314.13,314.13,314.13,314.13,314.13,314.13,315.71,315.71,315.71,315.71,316.11,316.11,316.11,316.11,316.11,316.11,316.11,316.11,316.11,316.11,316.11,316.11,316.11,316.11,316.11,316.11,316.11,316.11,316.11,316.11,316.11,316.11,316.11,316.11,316.11,316.11,316.51,316.51,316.51,316.51,316.51,316.51,316.51,316.51,316.11,316.11,316.11,316.11,316.51,316.11,316.90,324.82,330.76,337.10,345.42,349.78,352.55,356.11,363.24,376.31,376.31,376.31,376.31,376.31,376.31,356.91,356.91,356.91,356.91,356.91,356.91,358.09,359.68,356.91,376.31,376.31,376.31,376.31,376.31,376.31,376.31,376.31,376.31,376.31,356.91,356.91,356.91,356.91,344.63,344.63,344.63,339.08,339.08,339.08,339.08,339.08,339.08,339.08,339.08,339.08,339.08,339.08,339.08,339.08,339.08,335.52,335.52,335.52,335.52,335.52,335.52,335.52,335.52,335.52,335.52,335.52,335.52,335.52,339.08,339.08,339.08,339.08,339.08,339.08,339.08,339.08,335.52,335.52,335.52,335.52,335.52,335.52,335.52,335.52,335.52,335.52,339.08,339.08,339.08,339.08,339.08,339.08,339.08,344.63,344.63,344.63,344.63,344.63,344.63,344.63,344.63,356.91,356.91,356.91,356.91,344.63,344.63,344.63,344.63,344.63,344.63,339.08,339.08,339.08,339.08,339.08,339.08,339.08,339.08,339.08,339.08,339.08,339.08,339.08,339.08,339.08,339.08,339.08,339.08,339.08,335.52,335.52,335.52,335.52,335.52,339.08,339.08,339.08,339.08,339.08,339.08,339.08,344.63,344.63,344.63,344.63,344.63,344.63,344.63,344.63,344.63,344.63,344.63,344.63,344.63,344.63,339.08,339.08,339.08,339.08,339.08,339.08,339.08,339.08,344.63,344.63,344.63,339.08,339.08,339.08,339.08,339.08,339.08,339.08,339.08,339.08,344.63,344.63,344.63,344.63,344.63,344.63,344.63,344.63,344.63,344.63,344.63,344.63,344.63,344.63,344.63,344.63,344.63,344.63,344.63,344.63,344.63,344.63,344.63,344.63,344.63,344.63,344.63,344.63,344.63,344.63,339.08,339.08,339.08,339.08,339.08,339.08,339.08,339.08,339.08,339.08,339.08,339.08,339.08,339.08,339.08,335.52,335.52,335.52,335.52,335.52,335.52,335.52,335.52,335.52,335.52,335.52,335.52,335.52,332.75,332.75,332.75,332.75,332.75,332.75,332.75,332.75,332.75,332.75,332.75,335.52,335.52,335.52,335.52,335.52,335.52,335.52,335.52,335.52
356.91,344.63,344.63,344.63,339.08,339.08,339.08,339.08,335.52,335.52,335.52,335.52,335.52,335.52,335.52,335.52,335.52,335.52,335.52,335.52,335.52,335.52,335.52,335.52,335.52,335.52,335.52,335.52,335.52,335.52,335.52,335.52,335.52,335.52,335.52,336.31,335.91,335.91,336.31,336.31,336.31,336.31,336.31,336.71,334.73,327.99,322.45,316.11,315.32,314.92,314.53,314.53,314.53,314.13,314.13,314.13,314.13,314.13,314.13,314.13,314.13,314.13,314.13,314.13,314.13,314.13,314.13,314.13,314.13,314.13,314.13,314.13,314.13,314.13,314.13,314.13,314.13,314.13,315.71,315.71,315.71,315.71,315.71,315.71,316.11,316.11,316.11,316.11,316.11,316.11,316.11,316.11,316.11,315.71,315.71,315.71,315.71,315.71,315.71,315.71,315.71,315.71,315.71,314.13,314.13,314.13,315.71,315.71,315.71,315.71,315.71,315.71,314.13,314.13,314.13,314.13,314.13,314.13,314.13,314.13,314.13,314.13,314.13,314.13,314.13,314.13,314.13,314.13,314.13,314.13,315.71,315.71,315.71,315.71,315.71,315.71,315.71,316.11,316.11,316.11,316.11,316.11,316.11,316.11,316.11,316.11,316.11,316.11,316.11,316.11,316.11,316.11,316.11,316.11,316.11,316.11,316.11,316.11,316.11,316.11,316.11,316.11,316.11,316.11,316.11,316.11,316.11,316.11,316.11,316.11,316.51,316.11,316.90,318.49,323.24,325.62,328.78,335.91,340.67,349.78,354.93,363.64,372.75,375.92,375.92,375.13,371.16,362.05,358.09,356.91,356.91,356.91,356.91,358.09,360.07,361.66,370.37,373.54,376.31,376.31,376.31,376.31,376.31,376.31,376.31,376.31,376.31,356.91,356.91,356.91,344.63,344.63,344.63,339.08,339.08,339.08,339.08,339.08,339.08,339.08,339.08,339.08,339.08,339.08,339.08,339.08,339.08,339.08,339.08,335.52,335.52,335.52,335.52,335.52,335.52,335.52,335.52,335.52,335.52,335.52,335.52,339.08,339.08,339.08,339.08,339.08,339.08,339.08,335.52,335.52,335.52,335.52,335.52,335.52,335.52,335.52,335.52,335.52,339.08,339.08,339.08,339.08,339.08,339.08,339.08,344.63,344.63,344.63,344.63,344.63,344.63,344.63,344.63,356.91,356.91,356.91,356.91,344.63,344.63,344.63,344.63,344.63,344.63,339.08,339.08,339.08,339.08,339.08,339.08,339.08,339.08,339.08,339.08,339.08,339.08,339.08,339.08,339.08,339.08,339.08,335.52,335.52,335.52,335.52,335.52,335.52,335.52,335.52,335.52,335.52,339.08,339.08,339.08,339.08,339.08,344.63,344.63,344.63,344.63,344.63,344.63,344.63,344.63,344.63,344.63,344.63,339.08,339.08,339.08,339.08,339.08,339.08,339.08,339.08,339.08,339.08,339.08,339.08,339.08,339.08,339.08,339.08,339.08,339.08,339.08,339.08,339.08,339.08,344.63,344.63,344.63,344.63,344.63,344.63,344.63,344.63,344.63,344.63,344.63,344.63,344.63,344.63,344.63,344.63,344.63,344.63,344.63,344.63,344.63,344.63,344.63,344.63,344.63,344.63,344.63,344.63,344.63,339.08,339.08,339.08,339.08,339.08,339.08,339.08,339.08,339.08,339.08,339.08,339.08,339.08,339.08,339.08,335.52,335.52,335.52,335.52,335.52,335.52,335.52,335.52,335.52,335.52,335.52,335.52,335.52,335.52,332.75,332.75,332.75,332.75,332.75,332.75,332.75,332.75,332.75,332.75,332.75,335.52,335.52,335.52,335.52,335.52,335.52,335.52,335.52,335.52
356.91,344.63,344.63,344.63,339.08,339.08,339.08,339.08,335.52,335.52,335.52,335.52,335.52,335.52,335.52,335.52,335.52,335.52,335.52,335.52,335.52,335.52,335.52,335.52,335.52,335.52,335.52,339.08,339.08,335.52,335.52,335.52,335.52,335.52,335.52,335.91,335.91,336.31,335.91,336.31,336.31,336.31,336.31,336.31,336.31,327.99,323.64,316.90,314.92,314.92,314.53,314.92,314.13,314.92,314.13,314.92,314.13,314.13,314.13,314.13,314.13,314.13,314.13,314.13,314.13,314.13,314.13,314.13,314.13,314.13,314.13,314.13,314.13,314.13,314.13,314.13,314.13,314.13,315.71,315.71,315.71,315.71,315.71,315.71,316.11,316.11,316.11,316.11,316.11,316.11,316.11,316.11,316.11,315.71,315.71,315.71,315.71,315.71,315.71,315.71,315.71,315.71,315.71,314.13,314.13,314.13,315.71,315.71,315.71,315.71,315.71,315.71,314.13,314.13,314.13,314.13,314.13,314.13,314.13,314.13,314.13,314.13,314.13,314.13,314.13,314.13,314.13,314.13,314.13,314.13,315.71,315.71,315.71,315.71,315.71,315.71,315.71,316.11,316.11,316.11,316.11,316.11,316.11,316.11,316.11,316.11,316.11,316.11,316.11,316.11,316.11,316.11,316.11,316.11,316.11,316.11,316.11,316.11,316.11,316.11,316.11,316.11,316.11,316.11,316.11,316.11,316.11,316.11,316.11,316.11,316.51,316.11,316.51,318.09,320.07,321.26,319.28,320.07,325.62,330.76,340.67,346.21,350.17,360.87,367.60,369.18,369.98,363.64,359.28,357.30,354.93,355.72,356.51,350.96,352.55,359.68,366.81,374.73,375.52,375.92,376.31,376.31,376.31,376.31,376.31,376.31,376.31,356.91,356.91,356.91,344.63,344.63,344.63,339.08,339.08,339.08,339.08,339.08,339.08,339.08,339.08,339.08,339.08,339.08,339.08,339.08,339.08,339.08,339.08,335.52,335.52,335.52,335.52,335.52,335.52,335.52,335.52,335.52,335.52,335.52,335.52,339.08,339.08,339.08,339.08,339.08,339.08,339.08,335.52,335.52,335.52,335.52,335.52,335.52,335.52,335.52,335.52,335.52,335.52,335.52,335.52,339.08,339.08,339.08,339.08,339.08,344.63,344.63,344.63,344.63,344.63,344.63,344.63,344.63,344.63,344.63,344.63,344.63,344.63,344.63,344.63,339.08,339.08,339.08,339.08,339.08,339.08,339.08,339.08,339.08,339.08,339.08,339.08,339.08,339.08,338.69,338.69,338.29,335.52,335.52,335.52,335.52,335.52,335.52,335.52,335.52,335.52,335.52,335.52,335.52,335.52,339.08,339.08,339.08,339.08,339.08,339.08,339.08,344.63,344.63,344.63,344.63,344.63,344.63,344.63,339.08,339.08,339.08,339.08,339.08,339.08,339.08,339.08,339.08,339.08,339.08,339.08,339.08,339.08,339.08,339.08,339.08,339.08,339.08,339.08,339.08,339.08,339.08,339.08,344.63,344.63,344.63,344.63,344.63,344.63,344.63,344.63,344.63,344.63,344.63,344.63,344.63,344.63,344.63,344.63,344.63,344.63,344.63,339.08,344.63,344.63,344.63,344.63,344.63,344.63,339.08,339.08,339.08,339.08,339.08,339.08,339.08,339.08,339.08,339.08,339.08,339.08,339.08,339.08,339.08,339.08,339.08,335.52,335.52,335.52,335.52,335.52,335.52,335.52,335.52,335.52,335.52,335.52,335.52,335.52,335.52,332.75,332.75,332.75,332.75,332.75,332.75,332.75,332.75,332.75,332.75,332.75,332.75,332.75,335.52,335.52,335.52,335.52,335.52,335.52,335.52
356.91,344.63,344.63,344.63,339.08,339.08,339.08,339.08,339.08,335.52,335.52,335.52,335.52,335.52,335.52,335.52,335.52,335.52,335.52,335.52,335.52,335.52,335.52,335.52,335.52,335.52,335.52,339.08,339.08,335.52,335.52,335.52,335.52,335.52,335.52,335.52,335.91,335.91,335.52,336.31,335.91,335.91,336.31,335.91,336.71,329.97,325.22,316.51,314.92,314.53,314.53,314.92,314.13,314.92,314.13,314.13,314.13,314.13,314.13,314.13,314.13,314.13,314.13,314.13,314.13,314.13,314.13,314.13,314.13,314.13,314.13,314.13,314.13,314.13,314.13,314.13,314.13,314.13,314.13,314.13,315.71,315.71,315.71,315.71,315.71,315.71,315.71,315.71,315.71,315.71,315.71,315.71,315.71,315.71,315.71,315.71,315.71,315.71,315.71,315.71,315.71,314.13,314.13,314.13,314.13,314.13,314.13,314.13,315.71,315.71,315.71,314.13,314.13,314.13,314.13,314.13,314.13,314.13,314.13,314.13,314.13,314.13,314.13,314.13,314.13,314.13,314.13,314.13,314.13,314.13,314.13,314.13,314.13,315.71,315.71,315.71,315.71,315.71,315.71,315.71,315.71,315.71,315.71,315.71,315.71,315.71,316.11,316.11,316.11,316.11,316.11,316.11,316.11,316.11,316.11,316.11,316.11,316.11,316.11,316.11,316.11,316.11,316.11,316.11,316.11,316.11,316.11,316.11,316.11,316.11,316.51,316.11,316.11,316.90,318.09,319.28,317.69,316.11,316.11,316.11,316.11,328.78,332.75,342.65,342.65,343.44,344.23,347.40,347.00,345.02,340.67,341.85,341.46,340.27,340.67,343.84,351.36,361.66,372.75,375.92,376.31,376.31,376.31,376.31,376.31,376.31,376.31,356.91,356.91,356.91,344.63,344.63,344.63,344.63,339.08,339.08,339.08,339.08,339.08,339.08,339.08,339.08,339.08,339.08,339.08,339.08,339.08,339.08,339.08,335.52,335.52,335.52,335.52,335.52,335.52,335.52,335.52,335.52,335.52,335.52,335.52,339.08,339.08,339.08,339.08,339.08,339.08,339.08,335.52,335.52,335.52,335.52,335.52,335.52,335.52,335.52,335.52,335.52,335.52,335.52,335.52,339.08,339.08,339.08,339.08,339.08,344.63,344.63,344.63,344.63,344.63,344.63,344.63,344.63,344.63,344.63,344.63,344.63,344.63,344.63,344.63,339.08,339.08,339.08,339.08,339.08,339.08,339.08,339.08,339.08,339.08,339.08,339.08,339.08,339.08,338.29,337.89,337.50,335.52,335.52,335.52,335.52,335.52,335.52,335.52,335.52,335.52,335.52,335.52,335.52,335.52,339.08,339.08,339.08,339.08,339.08,339.08,339.08,344.63,344.63,344.63,339.08,339.08,339.08,339.08,339.08,339.08,339.08,339.08,339.08,339.08,339.08,339.08,339.08,339.08,339.08,339.08,339.08,339.08,339.08,339.08,339.08,339.08,339.08,339.08,339.08,339.08,339.08,339.08,339.08,344.63,344.63,344.63,344.63,344.63,344.63,344.63,344.63,344.63,344.63,339.08,339.08,339.08,339.08,339.08,339.08,339.08,339.08,339.08,339.08,339.08,339.08,339.08,339.08,339.08,339.08,339.08,339.08,339.08,339.08,339.08,339.08,339.08,339.08,339.08,339.08,339.08,339.08,339.08,335.52,335.52,335.52,335.52,335.52,335.52,335.52,335.52,335.52,335.52,335.52,335.52,335.52,335.52,335.52,335.52,332.75,332.75,332.75,332.75,332.75,332.75,332.75,332.75,332.75,332.75,332.75,332.75,332.75,332.75,332.75,335.52,335.52,335.52,335.52,335.52,335.52
356.91,344.63,344.63,344.63,339.08,339.08,339.08,339.08,339.08,335.52,335.52,335.52,335.52,335.52,335.52,335.52,335.52,335.52,335.52,335.52,335.52,335.52,335.52,335.52,335.52,335.52,335.52,335.52,335.52,335.52,335.52,335.52,335.52,335.52,335.52,335.52,335.91,335.52,335.91,335.52,335.91,335.91,335.91,335.91,336.31,330.37,324.82,315.71,314.92,314.13,314.92,314.13,314.53,314.13,314.13,314.13,314.13,314.13,314.13,314.13,314.13,314.13,314.13,314.13,314.13,314.13,314.13,314.13,314.13,314.13,314.13,314.13,314.13,314.13,314.13,314.13,314.13,314.13,314.13,314.13,314.13,314.13,314.13,314.13,315.71,315.71,315.71,315.71,315.71,315.71,315.71,315.71,315.71,315.71,314.13,314.13,314.13,314.13,314.13,314.13,314.13,314.13,314.13,314.13,314.13,314.13,314.13,314.13,314.13,315.71,314.13,314.13,314.13,314.13,314.13,314.13,314.13,314.13,314.13,314.13,314.13,313.34,313.34,313.34,313.34,313.34,313.34,313.34,313.34,314.13,314.13,314.13,314.13,314.13,314.13,314.13,314.13,314.13,314.13,314.13,315.71,315.71,315.71,315.71,315.71,315.71,315.71,315.71,315.71,316.11,316.11,316.11,316.11,316.11,316.11,316.11,316.11,316.11,316.11,316.11,316.11,316.11,316.11,316.11,316.11,316.11,316.11,316.11,316.11,316.11,316.11,316.51,316.11,316.51,317.30,317.30,317.69,316.11,316.11,316.11,316.11,316.11,320.47,327.60,329.58,330.37,331.56,339.08,337.10,336.31,329.18,331.16,327.99,326.01,326.41,331.16,340.67,344.63,351.36,359.28,366.41,365.62,376.31,376.31,376.31,376.31,376.31,356.91,356.91,356.91,344.63,344.63,344.63,344.63,339.08,339.08,339.08,339.08,339.08,339.08,339.08,339.08,339.08,339.08,339.08,339.08,339.08,335.52,335.52,335.52,335.52,335.52,335.52,335.52,335.52,335.52,335.52,335.52,335.52,335.52,335.52,335.52,335.52,335.52,335.52,335.52,335.52,335.52,335.52,335.52,335.52,335.52,335.52,335.52,335.52,335.52,335.52,335.52,335.52,335.52,335.52,339.08,339.08,339.08,339.08,339.08,344.63,344.63,344.63,344.63,344.63,344.63,344.63,344.63,344.63,344.63,344.63,344.63,344.63,344.63,344.63,339.08,339.08,339.08,339.08,339.08,339.08,339.08,339.08,339.08,339.08,339.08,339.08,338.69,339.08,337.89,335.52,335.52,335.52,335.52,335.52,335.52,335.52,335.52,335.52,335.52,335.52,335.52,335.52,335.52,335.52,335.52,335.52,339.08,339.08,339.08,339.08,339.08,339.08,339.08,339.08,339.08,339.08,339.08,339.08,339.08,339.08,339.08,339.08,339.08,339.08,339.08,339.08,339.08,339.08,339.08,339.08,339.08,339.08,339.08,339.08,339.08,339.08,339.08,339.08,339.08,339.08,339.08,339.08,344.63,344.63,344.63,344.63,344.63,344.63,344.63,344.63,344.63,344.63,344.63,339.08,339.08,339.08,339.08,339.08,339.08,339.08,339.08,339.08,339.08,339.08,339.08,339.08,339.08,339.08,339.08,339.08,339.08,339.08,339.08,339.08,339.08,339.08,339.08,339.08,339.08,339.08,339.08,339.08,335.52,335.52,335.52,335.52,335.52,335.52,335.52,335.52,335.52,335.52,335.52,335.52,335.52,335.52,335.52,335.52,332.75,332.75,332.75,332.75,332.75,332.75,332.75,332.75,332.75,332.75,332.75,335.52,335.52,335.52,335.52,335.52,335.52,335.52,335.52,335.52,335.52
356.91,344.63,344.63,344.63,339.08,339.08,339.08,339.08,335.52,335.52,335.52,335.52,335.52,335.52,335.52,335.52,335.52,335.52,335.52,335.52,335.52,335.52,335.52,335.52,335.52,335.52,335.52,335.52,335.52,335.52,335.52,335.52,335.52,335.52,335.52,336.31,335.52,335.52,336.31,335.52,335.91,335.91,336.31,336.31,335.91,329.58,324.43,315.71,314.53,315.32,314.53,314.53,314.53,314.92,314.13,314.92,314.13,314.13,314.13,314.13,314.13,314.13,314.13,314.13,314.13,314.13,314.13,314.13,314.13,314.13,314.13,314.13,314.13,314.13,314.13,314.13,314.13,314.13,314.13,314.13,314.13,314.13,314.13,314.13,315.71,315.71,315.71,315.71,315.71,315.71,315.71,315.71,315.71,315.71,314.13,314.13,314.13,314.13,314.13,314.13,314.13,314.13,314.13,314.13,314.13,314.13,314.13,314.13,314.13,315.71,314.13,314.13,314.13,314.13,314.13,314.13,314.13,314.13,314.13,314.13,314.13,313.34,313.34,313.34,313.34,313.34,313.34,313.34,313.34,314.13,314.13,314.13,314.13,314.13,314.13,314.13,314.13,314.13,314.13,314.13,315.71,315.71,315.71,315.71,315.71,315.71,315.71,315.71,315.71,316.11,316.11,316.11,316.11,316.11,316.11,316.11,316.11,316.11,316.11,316.11,316.11,316.11,316.11,316.11,316.11,316.11,316.11,316.11,316.11,316.11,316.11,316.51,316.11,316.11,316.11,316.11,316.90,316.11,316.11,316.11,316.11,316.11,317.30,317.69,317.30,316.51,320.86,319.67,319.28,318.49,316.11,316.11,316.11,316.11,315.71,316.51,319.67,327.99,335.52,335.91,349.78,349.78,356.51,376.31,376.31,376.31,376.31,356.91,356.91,356.91,344.63,344.23,344.63,344.63,344.63,339.08,339.08,339.08,339.08,339.08,339.08,339.08,339.08,339.08,339.08,335.52,335.52,335.52,335.52,335.52,335.52,335.52,335.52,335.52,335.52,335.52,335.52,335.52,335.52,335.52,335.52,335.52,335.52,335.52,335.52,335.52,335.52,335.52,335.52,335.52,335.52,335.52,335.52,335.52,335.52,335.52,335.52,335.52,335.52,335.52,335.52,339.08,339.08,339.08,339.08,339.08,339.08,339.08,344.63,344.63,344.63,344.63,344.63,344.63,344.63,344.63,344.63,344.63,344.63,344.63,339.08,339.08,339.08,339.08,339.08,339.08,339.08,339.08,339.08,339.08,339.08,339.08,339.08,338.29,337.50,337.50,335.52,335.52,335.52,335.52,335.52,335.52,335.52,335.52,335.52,335.52,335.52,335.52,335.52,335.52,335.52,335.52,335.52,335.52,339.08,339.08,339.08,339.08,339.08,339.08,339.08,339.08,339.08,339.08,339.08,339.08,339.08,339.08,339.08,339.08,339.08,339.08,339.08,339.08,339.08,339.08,339.08,339.08,339.08,339.08,339.08,339.08,339.08,339.08,339.08,339.08,339.08,339.08,339.08,344.63,344.63,344.63,344.63,344.63,344.63,344.63,344.63,344.63,339.08,339.08,339.08,339.08,339.08,339.08,339.08,339.08,339.08,339.08,339.08,339.08,339.08,339.08,339.08,339.08,339.08,339.08,339.08,339.08,339.08,339.08,339.08,339.08,339.08,339.08,339.08,339.08,335.52,335.52,335.52,335.52,335.52,335.52,335.52,335.52,335.52,335.52,335.52,335.52,335.52,335.52,335.52,335.52,335.52,332.75,332.75,332.75,332.75,332.75,332.75,332.75,332.75,332.75,332.75,332.75,332.75,335.52,335.52,335.52,335.52,335.52,335.52,335.52,335.52,335.52,335.52,335.52
356.91,344.63,344.63,344.63,339.08,339.08,339.08,339.08,335.52,335.52,335.52,335.52,335.52,335.52,335.52,335.52,335.52,335.52,335.52,335.52,335.52,335.52,335.52,335.52,335.52,335.52,335.52,335.52,335.52,335.52,335.52,335.52,335.52,335.52,335.52,335.52,335.52,335.91,335.52,335.52,336.31,335.52,335.91,335.91,336.31,331.95,325.22,318.88,314.53,314.92,314.13,314.92,314.13,314.92,314.13,314.13,314.13,314.13,314.13,314.13,314.13,314.13,314.13,314.13,314.13,314.13,314.13,314.13,314.13,314.13,314.13,314.13,314.13,314.13,314.13,314.13,314.13,314.13,314.13,314.13,314.13,314.13,314.13,314.13,314.13,314.13,314.13,314.13,314.13,314.13,314.13,314.13,314.13,314.13,314.13,314.13,314.13,314.13,314.13,314.13,314.13,314.13,314.13,314.13,314.13,314.13,314.13,314.13,314.13,315.71,314.13,314.13,314.13,314.13,314.13,314.13,314.13,314.13,314.13,314.13,313.34,313.34,313.34,313.34,313.34,313.34,313.34,313.34,313.34,313.34,313.34,313.34,313.34,313.34,313.34,313.34,314.13,314.13,314.13,314.13,314.13,314.13,314.13,314.13,314.13,315.71,315.71,315.71,315.71,315.71,316.11,316.11,316.11,316.11,316.11,316.11,316.11,316.11,316.11,316.11,316.11,316.11,316.11,316.11,316.11,316.11,316.11,316.11,316.11,316.11,316.11,316.11,316.11,316.51,316.51,316.11,316.11,316.11,316.11,316.11,316.11,316.11,317.30,316.90,316.51,316.11,316.11,316.51,316.11,316.11,316.11,316.11,316.11,316.11,315.71,315.71,315.71,315.71,320.07,320.47,316.11,316.11,316.11,316.11,316.11,316.11,316.11,316.11,338.29,343.04,341.06,337.89,341.06,344.63,344.63,339.08,339.08,339.08,339.08,339.08,339.08,339.08,339.08,339.08,339.08,335.52,335.52,335.52,335.52,335.52,335.52,335.52,335.52,335.52,335.52,335.52,335.52,335.52,335.52,335.52,335.52,335.52,335.52,335.52,335.52,335.52,335.52,335.52,335.52,335.52,335.52,335.52,335.52,335.52,335.52,335.52,335.52,335.52,335.52,335.52,335.52,335.52,339.08,339.08,339.08,339.08,339.08,339.08,339.08,339.08,339.08,339.08,339.08,344.63,344.63,344.63,344.63,344.63,344.63,341.46,339.08,339.08,339.08,339.08,339.08,339.08,339.08,335.52,335.52,335.52,339.08,339.08,339.08,337.50,337.10,337.10,335.52,335.52,335.52,335.52,335.52,335.52,335.52,335.52,335.52,335.52,335.52,335.52,335.52,335.52,335.52,335.52,335.52,335.52,339.08,339.08,339.08,339.08,339.08,339.08,339.08,339.08,339.08,339.08,339.08,339.08,339.08,339.08,339.08,339.08,339.08,339.08,339.08,339.08,339.08,338.29,339.08,339.08,339.08,335.52,335.52,335.52,339.08,339.08,339.08,339.08,339.08,339.08,339.08,339.08,339.08,339.08,339.08,344.63,344.63,344.63,339.08,339.08,339.08,339.08,339.08,339.08,339.08,339.08,339.08,339.08,339.08,339.08,339.08,339.08,339.08,339.08,339.08,339.08,339.08,339.08,339.08,335.52,335.52,335.52,335.52,335.52,335.52,339.08,339.08,335.52,335.52,335.52,335.52,335.52,335.52,335.52,335.52,335.52,335.52,335.52,335.52,335.52,335.52,335.52,335.52,335.52,335.52,332.75,332.75,332.75,332.75,332.75,332.75,332.75,332.75,332.75,332.75,332.75,332.75,335.52,335.52,335.52,335.52,335.52,335.52,335.52,335.52,335.52,335.52,335.52
356.91,344.63,344.63,344.63,339.08,339.08,335.52,335.52,335.52,335.52,335.52,335.52,335.52,335.52,335.52,335.52,335.52,335.52,335.52,335.52,335.52,335.52,335.52,335.52,335.52,335.52,335.52,335.52,335.52,335.52,335.52,335.52,335.52,335.52,335.52,335.52,335.91,335.52,335.91,335.52,335.91,335.52,336.31,335.52,335.91,331.95,325.62,319.67,314.92,314.53,314.13,314.92,314.13,314.53,314.13,314.13,314.13,314.13,314.13,314.13,314.13,314.13,314.13,314.13,314.13,314.13,314.13,314.13,314.13,314.13,314.13,314.13,314.13,314.13,314.13,314.13,314.13,314.13,314.13,314.13,314.13,314.13,314.13,314.13,314.13,314.13,314.13,314.13,314.13,314.13,314.13,314.13,314.13,314.13,314.13,314.13,314.13,314.13,314.13,314.13,314.13,314.13,314.13,314.13,314.13,314.13,314.13,314.13,314.13,314.13,314.13,314.13,314.13,314.13,314.13,314.13,314.13,314.13,313.34,313.34,313.34,313.34,313.34,313.34,313.34,313.34,313.34,313.34,313.34,313.34,313.34,313.34,313.34,313.34,313.34,313.34,313.34,313.34,313.34,313.34,314.13,314.13,314.13,314.13,314.13,314.13,314.13,315.71,315.71,315.71,315.71,315.71,315.71,316.11,316.11,316.11,316.11,316.11,316.11,316.11,316.11,316.11,316.11,316.11,316.11,316.11,316.11,316.11,316.11,316.11,316.11,316.11,316.11,316.11,316.11,316.11,316.11,316.11,316.11,316.11,316.11,316.11,316.11,316.11,316.11,316.11,316.11,316.11,316.11,316.11,316.11,316.11,316.11,315.71,315.71,315.71,315.71,316.11,316.11,316.11,316.11,316.11,316.11,316.11,316.11,316.11,316.11,316.11,328.39,333.14,333.14,332.75,337.89,344.63,344.63,339.08,339.08,339.08,339.08,339.08,339.08,339.08,339.08,339.08,339.08,335.52,335.52,335.52,335.52,335.52,335.52,335.52,335.52,335.52,335.52,335.52,335.52,335.52,335.52,335.52,335.52,335.52,335.52,335.52,335.52,335.52,335.52,335.52,335.52,335.52,335.52,335.52,335.52,335.52,335.52,335.52,335.52,335.52,335.52,335.52,335.52,335.52,339.08,339.08,339.08,339.08,339.08,339.08,339.08,339.08,339.08,339.08,339.08,344.63,344.63,344.63,344.63,344.63,344.63,339.08,339.08,339.08,339.08,339.08,339.08,339.08,339.08,335.52,335.52,335.52,339.08,339.08,339.08,335.52,335.52,335.52,335.52,335.52,335.52,335.52,335.52,335.52,335.52,335.52,335.52,335.52,335.52,335.52,335.52,335.52,335.52,335.52,335.52,335.52,339.08,339.08,339.08,339.08,339.08,339.08,339.08,339.08,339.08,339.08,339.08,339.08,339.08,339.08,339.08,339.08,339.08,339.08,339.08,339.08,339.08,337.89,339.08,339.08,339.08,335.52,335.52,335.52,339.08,339.08,339.08,339.08,339.08,339.08,339.08,339.08,339.08,339.08,339.08,344.63,344.63,344.63,339.08,339.08,339.08,339.08,339.08,339.08,339.08,339.08,339.08,339.08,339.08,339.08,339.08,339.08,339.08,339.08,339.08,339.08,339.08,339.08,339.08,335.52,335.52,335.52,335.52,335.52,335.52,339.08,339.08,335.52,335.52,335.52,335.52,335.52,335.52,335.52,335.52,335.52,335.52,335.52,335.52,335.52,335.52,335.52,335.52,335.52,335.52,332.75,332.75,332.75,332.75,332.75,332.75,332.75,332.75,332.75,332.75,332.75,332.75,335.52,335.52,335.52,335.52,335.52,335.52,335.52,335.52,335.52,335.52,335.52
356.91,344.63,339.08,339.08,339.08,335.52,335.52,335.52,335.52,335.52,335.52,335.52,335.52,335.52,335.52,335.52,335.52,335.52,335.52,335.52,335.52,335.52,335.52,335.52,335.52,335.52,335.52,335.52,335.52,335.52,335.52,335.52,335.52,335.52,335.52,335.52,335.91,335.52,335.91,335.52,335.91,335.91,335.52,336.31,335.91,332.75,326.01,320.47,314.92,314.53,315.32,314.13,314.53,314.53,314.13,314.92,314.13,314.13,314.13,314.13,314.13,314.13,314.13,314.13,314.13,314.13,314.13,314.13,314.13,314.13,314.13,314.13,314.13,314.13,314.13,314.13,314.13,314.13,314.13,314.13,314.13,314.13,314.13,314.13,314.13,314.13,314.13,314.13,314.13,314.13,314.13,314.13,314.13,314.13,314.13,314.13,314.13,314.13,314.13,314.13,314.13,314.13,314.13,314.13,314.13,314.13,314.13,314.13,314.13,314.13,314.13,314.13,314.13,314.13,314.13,314.13,314.13,313.34,313.34,313.34,313.34,313.34,313.34,313.34,313.34,313.34,313.34,313.34,313.34,313.34,313.34,313.34,313.34,313.34,313.34,313.34,313.34,313.34,313.34,313.34,313.34,313.34,314.13,314.13,314.13,314.13,314.13,314.13,314.13,315.71,315.71,315.71,315.71,315.71,315.71,315.71,316.11,316.11,316.11,316.11,316.11,316.11,316.11,316.11,316.11,316.11,316.11,316.11,316.11,316.11,316.11,316.11,316.11,316.11,316.11,316.11,316.11,316.11,316.11,316.11,316.11,316.11,316.11,316.11,316.11,316.11,316.11,316.11,316.11,316.11,315.71,315.71,315.71,315.71,315.71,315.71,315.71,315.71,316.11,316.11,316.11,316.11,316.11,316.11,316.11,316.11,316.11,316.11,316.11,316.11,316.11,316.11,336.71,344.63,344.63,339.08,339.08,339.08,339.08,339.08,339.08,339.08,339.08,339.08,339.08,335.52,335.52,335.52,335.52,335.52,335.52,335.52,335.52,335.52,335.52,335.52,335.52,335.52,335.52,335.52,335.52,335.52,335.52,335.52,335.52,335.52,335.52,335.52,335.52,335.52,335.52,335.52,335.52,335.52,335.52,335.52,335.52,335.52,335.52,335.52,335.52,335.52,335.52,335.52,335.52,339.08,339.08,339.08,339.08,339.08,339.08,339.08,339.08,339.08,339.08,339.08,339.08,339.08,339.08,339.08,339.08,339.08,339.08,335.52,335.52,335.52,335.52,335.52,335.52,335.52,335.52,335.52,335.52,335.52,335.52,335.52,335.52,335.52,335.52,335.52,335.52,335.52,335.52,335.52,335.52,335.52,335.52,335.52,335.52,335.52,335.52,335.52,335.52,335.52,335.52,335.52,335.52,335.52,339.08,339.08,339.08,339.08,339.08,339.08,339.08,339.08,339.08,339.08,339.08,339.08,339.08,339.08,339.08,335.52,335.52,338.29,335.52,335.52,335.52,335.52,335.52,335.52,339.08,339.08,339.08,339.08,339.08,339.08,339.08,339.08,339.08,339.08,339.08,339.08,339.08,339.08,339.08,339.08,339.08,339.08,339.08,339.08,339.08,339.08,339.08,335.52,335.52,335.52,335.52,335.52,335.52,335.52,335.52,335.52,335.52,335.52,335.52,335.52,335.52,335.52,335.52,335.52,335.52,335.52,335.52,335.52,335.52,335.52,335.52,335.52,335.52,335.52,335.52,335.52,335.52,335.52,335.52,335.52,335.52,335.52,335.52,335.52,332.75,332.75,332.75,332.75,332.75,332.75,332.75,332.75,332.75,332.75,332.75,335.52,335.52,335.52,335.52,335.52,335.52,335.52,335.52,335.52,335.52,335.52,335.52,339.08
356.91,344.63,339.08,339.08,339.08,335.52,335.52,335.52,335.52,335.52,335.52,335.52,335.52,335.52,335.52,335.52,335.52,335.52,335.52,335.52,335.52,335.52,335.52,335.52,335.52,335.52,335.52,335.52,335.52,335.52,335.52,335.52,335.52,335.52,335.52,335.52,335.52,335.52,335.52,335.52,335.91,335.52,335.52,335.91,335.91,333.14,326.01,320.47,314.13,314.53,314.92,314.13,314.92,314.13,314.13,314.13,314.13,314.13,314.13,314.13,314.13,314.13,314.13,314.13,314.13,314.13,314.13,314.13,314.13,314.13,314.13,314.13,314.13,314.13,314.13,314.13,314.13,314.13,314.13,314.13,314.13,314.13,314.13,314.13,314.13,314.13,314.13,314.13,314.13,314.13,314.13,314.13,314.13,314.13,314.13,314.13,314.13,314.13,314.13,314.13,314.13,314.13,314.13,314.13,314.13,314.13,314.13,314.13,314.13,314.13,314.13,314.13,314.13,314.13,314.13,314.13,314.13,313.34,313.34,313.34,313.34,313.34,313.34,313.34,313.34,313.34,313.34,313.34,313.34,313.34,313.34,313.34,313.34,313.34,313.34,313.34,313.34,313.34,313.34,313.34,313.34,313.34,314.13,314.13,314.13,314.13,314.13,314.13,314.13,315.71,315.71,315.71,315.71,315.71,315.71,315.71,316.11,316.11,316.11,316.11,316.11,316.11,316.11,316.11,316.11,316.11,316.11,316.11,316.11,316.11,316.11,316.11,316.11,316.11,316.11,316.11,316.11,316.11,316.11,316.11,316.11,316.11,316.11,316.11,316.11,316.11,316.11,316.11,316.11,316.11,315.71,315.71,315.71,315.71,315.71,315.71,315.71,315.71,316.11,316.11,316.11,316.11,316.11,316.11,316.11,316.11,316.11,316.11,316.11,316.11,316.11,316.11,332.75,344.63,344.63,339.08,339.08,339.08,339.08,339.08,339.08,339.08,339.08,339.08,339.08,335.52,335.52,335.52,335.52,335.52,335.52,335.52,335.52,335.52,335.52,335.52,335.52,335.52,335.52,335.52,335.52,335.52,335.52,335.52,335.52,335.52,335.52,335.52,335.52,335.52,335.52,335.52,335.52,335.52,335.52,335.52,335.52,335.52,335.52,335.52,335.52,335.52,335.52,335.52,335.52,335.52,335.52,335.52,339.08,339.08,339.08,339.08,339.08,339.08,339.08,339.08,339.08,339.08,339.08,339.08,339.08,335.52,335.52,335.52,335.52,335.52,335.52,335.52,335.52,335.52,335.52,335.52,335.52,335.52,335.52,335.52,335.52,335.52,335.52,335.52,335.52,335.52,335.52,335.52,335.52,335.52,335.52,335.52,335.52,335.52,335.52,335.52,335.52,335.52,335.52,335.52,335.52,335.52,335.52,335.52,335.52,335.52,335.52,335.52,335.52,339.08,339.08,339.08,339.08,335.52,335.52,335.52,335.52,335.52,335.52,336.71,337.50,337.10,336.71,335.52,335.52,335.52,335.52,339.08,339.08,339.08,339.08,339.08,339.08,339.08,339.08,339.08,339.08,339.08,339.08,339.08,339.08,339.08,335.52,335.52,335.52,335.52,335.52,335.52,335.52,335.52,335.52,335.52,335.52,335.52,335.52,335.52,335.52,335.52,335.52,335.52,335.52,335.52,335.52,335.52,335.52,335.52,335.52,335.52,335.52,335.52,335.52,335.52,335.52,335.52,335.52,335.52,335.52,335.52,335.52,335.52,335.52,335.52,335.52,332.75,332.75,332.75,332.75,332.75,332.75,332.75,332.75,332.75,332.75,332.75,332.75,332.75,332.75,335.52,335.52,335.52,335.52,335.52,335.52,335.52,335.52,335.52,339.08,339.08,339.08,339.08
356.91,344.63,339.08,339.08,339.08,335.52,335.52,335.52,335.52,335.52,335.52,335.52,335.52,335.52,335.52,332.75,332.75,335.52,335.52,335.52,335.52,335.52,335.52,335.52,335.52,335.52,335.52,335.52,335.52,335.52,335.52,335.52,332.75,335.12,335.52,335.52,335.12,335.91,335.52,335.91,335.52,335.91,336.31,335.52,336.31,330.76,325.62,318.49,314.53,314.92,314.13,314.53,314.53,314.13,314.92,314.13,314.13,314.13,314.13,314.13,314.13,314.13,314.13,314.13,314.13,314.13,314.13,314.13,314.13,314.13,314.13,314.13,314.13,314.13,314.13,314.13,314.13,314.13,314.13,314.13,314.13,314.13,314.13,314.13,314.13,314.13,314.13,314.13,314.13,314.13,314.13,314.13,314.13,314.13,314.13,314.13,314.13,314.13,314.13,314.13,314.13,314.13,314.13,314.13,314.13,314.13,314.13,314.13,314.13,314.13,314.13,314.13,314.13,314.13,314.13,314.13,314.13,313.34,313.34,313.34,313.34,313.34,313.34,313.34,313.34,313.34,313.34,313.34,313.34,313.34,313.34,313.34,313.34,313.34,313.34,313.34,313.34,313.34,313.34,313.34,313.34,313.34,313.34,313.34,313.34,314.13,314.13,314.13,314.13,314.13,315.71,315.71,315.71,315.71,315.71,315.71,315.71,315.71,315.71,316.11,316.11,316.11,316.11,316.11,316.11,316.11,316.11,316.11,316.11,315.71,315.71,315.71,315.71,315.71,316.11,316.11,316.11,316.11,316.11,316.11,316.11,316.11,316.11,316.11,316.11,316.11,316.11,315.71,315.71,315.71,315.71,315.71,315.71,315.71,315.71,315.71,315.71,315.71,316.11,316.11,316.11,316.11,316.11,316.11,316.11,316.11,316.11,316.11,316.11,316.11,316.11,316.11,327.60,344.63,344.63,339.08,339.08,339.08,339.08,339.08,339.08,339.08,339.08,339.08,339.08,335.52,335.52,335.52,335.52,335.52,335.52,335.52,335.52,335.52,335.52,335.52,335.52,335.52,335.52,335.52,335.52,335.52,335.52,335.52,335.52,335.52,335.52,335.52,335.52,335.52,335.52,335.52,335.52,335.52,335.52,335.52,335.52,335.52,335.52,335.52,335.52,335.52,335.52,335.52,335.52,335.52,335.52,335.52,339.08,339.08,339.08,339.08,339.08,339.08,339.08,339.08,339.08,339.08,339.08,339.08,339.08,335.52,335.52,335.52,335.52,335.52,335.52,335.52,335.52,335.52,335.52,335.52,335.52,335.52,335.52,335.52,335.52,335.52,335.52,335.52,335.52,335.52,335.52,335.52,335.52,335.52,335.52,335.52,335.52,335.52,335.52,335.52,335.52,335.52,335.52,335.52,335.52,335.52,335.52,335.52,335.52,335.52,335.52,335.52,335.52,335.52,335.52,335.52,335.52,335.52,335.52,335.52,335.52,335.52,335.52,335.91,335.91,335.91,335.52,335.52,335.52,335.52,335.52,335.52,335.52,335.52,339.08,339.08,339.08,339.08,339.08,339.08,339.08,339.08,339.08,339.08,335.52,335.52,335.52,335.52,335.52,335.52,335.52,335.52,335.52,335.52,335.52,335.52,335.52,335.52,335.52,335.52,335.52,335.52,335.52,335.52,335.52,332.75,335.52,335.52,335.52,335.52,335.52,335.52,335.52,335.52,335.52,335.52,335.52,335.52,335.52,335.52,335.52,332.75,335.52,335.52,332.75,332.75,332.75,332.75,332.75,332.75,332.75,332.75,332.75,332.75,332.75,332.75,332.75,332.75,332.75,332.75,332.75,335.52,335.52,335.52,335.52,335.52,335.52,335.52,335.52,335.52,339.08,339.08,339.08,339.08
356.91,344.63,339.08,339.08,335.52,335.52,335.52,335.52,335.52,335.52,335.52,335.52,335.52,332.75,332.75,332.75,332.75,335.52,335.52,335.52,335.52,335.52,335.52,335.52,335.52,335.52,335.52,335.52,335.52,335.52,335.52,335.52,334.73,335.12,335.12,335.52,335.52,335.52,335.91,335.12,335.91,335.52,335.52,335.52,336.31,329.58,324.43,318.49,315.32,314.53,314.92,314.53,314.13,314.53,314.13,314.13,314.92,314.13,314.13,314.13,314.13,314.13,314.13,314.13,314.13,314.13,314.13,314.13,314.13,314.13,314.13,314.13,314.13,314.13,314.13,314.13,314.13,314.13,314.13,314.13,314.13,314.13,314.13,314.13,314.13,314.13,314.13,314.13,314.13,314.13,314.13,314.13,314.13,314.13,314.13,314.13,314.13,314.13,314.13,314.13,314.13,314.13,314.13,314.13,314.13,314.13,314.13,314.13,314.13,314.13,314.13,314.13,314.13,314.13,314.13,314.13,314.13,313.34,313.34,313.34,313.34,313.34,313.34,313.34,313.34,313.34,313.34,313.34,313.34,313.34,313.34,313.34,313.34,313.34,313.34,313.34,313.34,313.34,313.34,313.34,313.34,313.34,313.34,313.34,313.34,313.34,314.13,314.13,314.13,314.13,314.13,314.13,314.13,315.71,315.71,315.71,315.71,315.71,315.71,315.71,315.71,315.71,315.71,315.71,315.71,315.71,316.11,315.71,315.71,315.71,315.71,315.71,315.71,315.71,315.71,315.71,315.71,316.11,316.11,316.11,316.11,316.11,316.11,315.71,315.71,315.71,315.71,315.71,315.71,315.71,315.71,315.71,315.71,315.71,315.71,315.71,315.71,315.71,316.11,316.11,316.11,316.11,316.11,316.11,316.11,316.11,316.11,316.11,316.11,316.11,316.11,316.11,316.11,339.08,339.08,339.08,339.08,339.08,339.08,339.08,339.08,339.08,339.08,339.08,339.08,335.52,339.08,339.08,335.52,335.52,335.52,335.52,335.52,335.52,335.52,335.52,335.52,335.52,332.75,332.75,332.75,332.75,332.75,332.75,335.52,335.52,335.52,335.52,335.52,335.52,335.52,335.52,335.52,335.52,335.52,335.52,335.52,335.52,335.52,335.52,335.52,335.52,335.52,335.52,335.52,335.52,335.52,335.52,335.52,335.52,335.52,335.52,335.52,339.08,339.08,339.08,339.08,339.08,335.52,335.52,335.52,335.52,335.52,335.52,335.52,335.52,335.52,335.52,335.52,335.52,335.52,335.52,335.52,335.52,335.52,335.52,335.52,335.52,335.52,335.52,335.52,335.52,335.52,335.52,335.52,335.52,335.52,335.52,335.52,335.52,335.52,335.52,335.52,335.52,335.52,335.52,335.52,335.52,335.52,335.52,335.52,335.52,335.52,335.52,335.52,335.52,335.52,335.52,335.52,335.52,335.52,335.52,335.52,335.52,335.52,335.91,335.52,335.91,335.91,335.52,335.52,335.52,335.52,335.52,335.52,335.52,339.08,339.08,339.08,339.08,339.08,339.08,339.08,339.08,339.08,339.08,335.52,335.52,335.52,335.52,335.52,335.52,335.52,335.52,335.52,335.52,335.52,335.52,335.52,335.52,335.52,335.52,335.52,335.52,335.52,335.52,335.52,332.75,335.52,335.52,335.52,335.52,335.52,335.52,335.52,335.52,335.52,335.52,335.52,335.52,335.52,335.52,335.52,332.75,335.52,335.52,332.75,332.75,332.75,332.75,332.75,332.75,332.75,332.75,332.75,332.75,332.75,332.75,332.75,332.75,332.75,332.75,332.75,335.52,335.52,335.52,335.52,335.52,335.52,335.52,335.52,335.52,339.08,339.08,339.08,339.08
356.91,344.63,339.08,339.08,335.52,335.52,335.52,335.52,332.75,332.75,332.75,332.75,332.75,332.75,332.75,332.75,332.75,332.75,335.52,335.52,332.75,332.75,332.75,332.75,332.75,332.75,332.75,335.52,335.52,335.52,335.52,335.12,335.12,335.12,335.12,335.12,335.91,335.12,335.52,335.91,335.52,335.91,335.52,336.31,334.73,326.41,322.84,316.11,314.92,314.13,314.92,314.13,314.92,314.13,314.92,314.13,314.13,314.13,314.13,314.13,314.13,314.13,314.13,314.13,314.13,314.13,314.13,314.13,314.13,314.13,314.13,314.13,314.13,314.13,314.13,314.13,314.13,314.13,314.13,314.13,314.13,314.13,314.13,314.13,314.13,314.13,314.13,314.13,314.13,314.13,314.13,314.13,314.13,314.13,314.13,314.13,314.13,314.13,314.13,314.13,314.13,314.13,314.13,314.13,314.13,314.13,314.13,314.13,314.13,314.13,314.13,314.13,314.13,314.13,314.13,314.13,314.13,313.34,313.34,313.34,313.34,313.34,313.34,313.34,313.34,313.34,313.34,313.34,313.34,313.34,313.34,313.34,313.34,313.34,313.34,313.34,313.34,313.34,313.34,313.34,313.34,313.34,313.34,313.34,313.34,313.34,314.13,314.13,314.13,314.13,314.13,314.13,314.13,315.71,315.71,315.71,315.71,315.71,315.71,315.71,315.71,315.71,315.71,315.71,315.71,315.71,316.11,315.71,315.71,315.71,315.71,315.71,315.71,315.71,315.71,315.71,315.71,316.11,316.11,316.11,316.11,316.11,316.11,315.71,315.71,315.71,315.71,315.71,315.71,315.71,315.71,315.71,315.71,315.71,315.71,315.71,315.71,315.71,316.11,316.11,316.11,316.11,316.11,316.11,316.11,316.11,316.11,316.11,316.11,316.11,316.11,316.11,316.11,325.62,333.54,337.89,339.08,338.29,335.52,335.52,335.52,335.52,335.52,335.52,335.52,335.52,339.08,339.08,339.08,335.52,335.52,335.52,335.52,335.52,335.52,335.52,335.52,335.52,332.75,332.75,332.75,332.75,332.75,332.75,332.75,332.75,332.75,332.75,332.75,332.75,332.75,335.52,335.52,335.52,335.52,335.52,335.52,332.75,332.75,332.75,332.75,332.75,332.75,332.75,332.75,332.75,332.75,332.75,335.52,335.52,335.52,335.52,335.52,335.52,335.52,335.52,335.52,335.52,335.52,335.52,335.52,335.52,335.52,335.52,335.52,335.52,335.52,335.52,335.52,335.52,335.52,335.52,335.52,335.52,335.52,335.52,335.52,335.52,335.52,335.52,335.52,335.52,335.52,335.52,335.52,335.52,335.52,335.52,335.52,335.52,335.52,335.52,332.75,332.75,332.75,332.75,332.75,335.52,335.52,335.52,335.52,335.52,335.52,335.52,335.52,335.52,335.52,335.52,335.52,335.52,335.52,335.52,335.52,335.52,335.52,332.75,335.52,335.52,335.52,335.52,335.52,335.52,335.52,335.52,335.52,335.52,335.52,335.52,335.52,335.52,335.52,335.52,335.52,335.52,335.52,335.52,335.52,335.52,335.52,335.52,335.52,335.52,335.52,335.52,335.52,335.52,335.52,335.52,335.52,335.52,335.52,335.52,335.52,335.52,332.75,332.75,332.75,332.75,332.75,332.75,332.75,335.52,335.52,335.52,335.52,335.52,335.52,335.52,335.52,335.52,335.52,335.52,335.52,332.75,335.52,335.52,332.75,332.75,332.75,332.75,332.75,332.75,332.75,332.75,332.75,332.75,332.75,332.75,332.75,332.75,332.75,332.75,332.75,335.52,335.52,335.52,335.52,335.52,335.52,335.52,335.52,335.52,339.08,339.08,339.08,339.08
356.91,344.63,339.08,339.08,335.52,335.52,335.52,335.52,332.75,332.75,332.75,332.75,332.75,332.75,332.75,332.75,332.75,332.75,335.52,335.52,332.75,332.75,332.75,332.75,332.75,332.75,332.75,335.52,335.52,335.52,335.12,335.12,334.73,334.73,335.12,335.12,335.12,335.52,335.52,335.12,335.91,335.52,335.91,334.33,328.78,324.43,318.49,315.32,314.13,314.53,314.13,314.92,314.13,314.13,314.13,314.13,314.13,314.13,314.13,314.13,314.13,314.13,314.13,314.13,314.13,314.13,314.13,314.13,314.13,314.13,314.13,314.13,314.13,314.13,314.13,314.13,314.13,314.13,314.13,314.13,314.13,314.13,314.13,314.13,314.13,314.13,314.13,314.13,314.13,314.13,314.13,314.13,314.13,314.13,314.13,314.13,314.13,314.13,314.13,314.13,314.13,314.13,314.13,314.13,314.13,314.13,314.13,314.13,314.13,314.13,314.13,314.13,314.13,314.13,314.13,313.34,313.34,313.34,313.34,313.34,313.34,313.34,313.34,313.34,313.34,313.34,313.34,313.34,313.34,313.34,313.34,313.34,313.34,313.34,313.34,313.34,313.34,313.34,313.34,313.34,313.34,313.34,313.34,313.34,313.34,313.34,314.13,314.13,314.13,314.13,314.13,314.13,314.13,314.13,314.13,314.13,315.71,315.71,315.71,315.71,315.71,315.71,315.71,315.71,315.71,315.71,315.71,315.71,315.71,315.71,315.71,315.71,315.71,315.71,315.71,315.71,315.71,315.71,315.71,315.71,315.71,315.71,315.71,315.71,315.71,315.71,315.71,315.71,315.71,315.71,315.71,315.71,315.71,315.71,314.13,314.13,314.13,315.71,315.71,315.71,315.71,315.71,316.11,316.11,316.11,316.11,316.11,316.11,316.11,316.11,316.11,316.11,316.11,324.82,329.58,335.52,337.89,338.29,337.50,337.50,335.52,335.52,335.52,335.52,335.52,335.52,339.08,339.08,339.08,335.52,335.52,335.52,335.52,335.52,335.52,335.52,335.52,335.52,332.75,332.75,332.75,332.75,332.75,332.75,332.75,332.75,332.75,332.75,332.75,332.75,332.75,332.75,332.75,332.75,332.75,332.75,332.75,332.75,332.75,332.75,332.75,332.75,332.75,332.75,332.75,332.75,332.75,332.75,332.75,335.52,335.52,335.52,335.52,335.52,335.52,335.52,335.52,335.52,335.52,335.52,335.52,336.31,335.52,335.52,335.52,335.52,335.52,335.52,335.52,335.52,335.52,335.52,335.52,335.52,335.52,335.52,335.52,335.52,335.52,335.52,335.52,335.52,335.52,335.52,335.52,335.52,335.52,335.52,335.52,335.52,335.52,335.52,332.75,332.75,332.75,332.75,332.75,332.75,335.52,335.52,335.52,335.52,335.52,335.52,335.52,335.52,335.52,335.52,335.52,335.52,335.52,335.52,335.52,335.52,335.52,332.75,335.52,335.52,335.52,335.52,335.52,335.52,335.52,335.52,335.52,335.52,335.52,335.52,335.52,335.52,335.52,335.52,335.52,335.52,335.52,335.52,335.52,335.52,335.52,335.52,335.52,335.52,335.52,335.52,335.52,335.52,335.52,335.52,335.52,335.52,335.52,335.52,332.75,332.75,332.75,332.75,332.75,332.75,332.75,332.75,332.75,335.52,335.52,335.52,335.52,335.52,335.52,335.12,335.52,335.52,335.52,335.52,335.52,332.75,332.75,332.75,332.75,332.75,332.75,332.75,332.75,332.75,332.75,332.75,332.75,332.75,332.75,332.75,332.75,332.75,332.75,332.75,332.75,335.52,335.52,335.52,335.52,335.52,335.52,335.52,335.52,335.52,339.08,339.08,335.52,339.08
344.63,344.63,339.08,339.08,335.52,335.52,335.52,335.52,332.75,332.75,332.75,332.75,332.75,332.75,332.75,332.75,332.75,332.75,332.75,332.75,332.75,332.75,332.75,332.75,332.75,332.75,332.75,332.75,332.75,332.75,333.54,333.93,333.93,334.73,333.93,334.73,335.12,334.73,335.12,335.52,335.52,335.12,335.91,328.39,325.22,319.67,314.92,314.13,314.92,314.13,314.53,314.13,314.53,314.53,314.13,314.92,314.13,314.13,314.13,314.13,314.13,314.13,314.13,314.13,314.13,314.13,314.13,314.13,314.13,314.13,314.13,314.13,314.13,314.13,314.13,314.13,314.13,314.13,314.13,314.13,314.13,314.13,314.13,314.13,314.13,314.13,314.13,314.13,314.13,314.13,314.13,314.13,314.13,314.13,314.13,314.13,314.13,314.13,314.13,314.13,314.13,314.13,314.13,314.13,314.13,314.13,314.13,314.13,314.13,314.13,314.13,314.13,314.13,314.13,314.13,313.34,313.34,313.34,313.34,313.34,313.34,313.34,313.34,313.34,313.34,313.34,313.34,313.34,313.34,313.34,313.34,313.34,313.34,313.34,313.34,313.34,313.34,313.34,313.34,313.34,313.34,313.34,313.34,313.34,313.34,313.34,313.34,313.34,313.34,314.13,314.13,314.13,314.13,314.13,314.13,314.13,315.71,315.71,315.71,315.71,315.71,315.71,315.71,315.71,315.71,315.71,315.71,315.71,315.71,315.71,315.71,315.71,315.71,315.71,315.71,315.71,315.71,315.71,315.71,315.71,315.71,315.71,315.71,315.71,315.71,315.71,315.71,315.71,315.71,315.71,314.13,314.13,314.13,314.13,314.13,314.13,314.13,315.71,315.71,315.71,315.71,315.71,316.11,316.11,316.11,316.11,316.11,316.11,316.11,316.11,316.11,316.11,316.11,316.11,316.11,339.08,339.08,339.08,335.52,335.52,335.52,339.08,339.08,339.08,339.08,335.52,339.08,339.08,339.08,335.52,335.52,335.52,335.52,335.52,335.52,335.52,335.52,335.52,332.75,332.75,332.75,332.75,332.75,332.75,332.75,332.75,332.75,332.75,332.75,332.75,332.75,332.75,332.75,332.75,332.75,332.75,332.75,332.75,332.75,332.75,332.75,332.75,332.75,332.75,332.75,332.75,332.75,332.75,332.75,335.52,335.52,335.52,335.52,335.52,335.52,335.52,335.52,335.52,335.52,335.52,335.52,335.52,335.52,335.52,335.52,335.52,335.52,335.52,335.52,335.52,335.52,335.52,335.52,335.52,335.52,335.52,335.52,335.52,335.52,335.52,335.52,335.52,335.52,335.52,335.52,335.52,335.52,335.52,335.52,335.52,335.52,335.52,335.52,335.52,332.75,332.75,332.75,335.52,335.52,335.52,335.52,335.52,335.52,335.52,335.52,335.52,335.52,335.52,335.52,335.52,335.52,335.52,335.52,335.52,335.52,335.52,335.52,335.52,335.52,335.52,335.52,335.52,335.52,335.52,335.52,335.52,335.52,335.52,335.52,335.52,335.52,335.52,335.52,335.52,335.52,335.52,335.52,335.52,335.52,335.52,335.52,335.52,335.52,335.52,335.52,335.52,335.52,335.52,335.52,335.52,335.52,335.52,332.75,332.75,332.75,332.75,332.75,332.75,332.75,332.75,332.75,335.52,335.52,335.52,335.52,335.52,335.12,335.12,335.52,335.52,335.52,335.52,335.52,332.75,332.75,332.75,332.75,332.75,332.75,332.75,332.75,332.75,332.75,332.75,332.75,332.75,332.75,332.75,332.75,332.75,332.75,332.75,332.75,335.52,335.52,335.52,335.52,335.52,335.52,335.52,335.52,335.52,339.08,339.08,335.52,339.08
344.63,339.08,335.52,335.52,335.52,335.52,332.75,332.75,332.75,332.75,332.75,332.75,332.75,332.75,332.75,332.75,332.75,332.75,332.75,332.75,332.75,332.75,332.75,332.75,332.75,332.75,332.75,332.75,332.75,332.75,333.54,333.14,333.54,333.14,333.93,334.33,334.33,334.73,334.33,335.12,335.12,335.91,331.16,325.22,320.47,314.92,314.13,314.92,314.13,314.92,314.13,314.92,314.13,314.13,314.13,314.13,314.13,314.13,314.13,314.13,314.13,314.13,314.13,314.13,314.13,314.13,314.13,314.13,314.13,314.13,314.13,314.13,314.13,314.13,314.13,314.13,314.13,314.13,314.13,314.13,314.13,314.13,314.13,314.13,314.13,314.13,314.13,314.13,314.13,314.13,314.13,314.13,314.13,314.13,314.13,314.13,314.13,314.13,314.13,314.13,314.13,314.13,314.13,314.13,314.13,314.13,314.13,314.13,314.13,314.13,314.13,314.13,314.13,314.13,314.13,313.34,313.34,313.34,313.34,313.34,313.34,313.34,313.34,313.34,313.34,313.34,313.34,313.34,313.34,313.34,313.34,313.34,313.34,313.34,313.34,313.34,313.34,313.34,313.34,313.34,313.34,313.34,313.34,313.34,313.34,313.34,313.34,313.34,313.34,314.13,314.13,314.13,314.13,314.13,314.13,314.13,314.13,314.13,314.13,315.71,315.71,315.71,315.71,315.71,315.71,315.71,315.71,315.71,315.71,315.71,315.71,315.71,315.71,315.71,315.71,315.71,315.71,315.71,315.71,315.71,315.71,315.71,315.71,315.71,315.71,315.71,314.13,314.13,314.13,314.13,314.13,314.13,314.13,314.13,314.13,314.13,314.13,314.13,315.71,315.71,315.71,315.71,315.71,315.71,315.71,316.11,316.11,316.11,316.11,316.11,316.11,316.11,316.11,316.11,316.11,339.08,339.08,339.08,339.08,335.52,335.52,339.08,339.08,339.08,339.08,339.08,339.08,339.08,339.08,335.52,335.52,335.52,335.52,335.52,335.52,335.52,335.52,335.52,332.75,332.75,332.75,332.75,332.75,332.75,332.75,332.75,332.75,332.75,332.75,332.75,332.75,332.75,332.75,332.75,332.75,332.75,332.75,332.75,332.75,332.75,332.75,332.75,332.75,332.75,332.75,332.75,332.75,332.75,332.75,335.52,335.52,335.52,335.52,335.52,335.52,335.52,335.52,335.52,335.52,335.52,339.08,339.08,339.08,339.08,335.52,335.52,335.52,335.52,335.52,335.52,335.52,335.52,335.52,335.52,335.52,335.52,335.52,335.52,335.52,335.52,335.52,335.52,335.52,335.52,335.52,335.52,335.52,335.52,335.52,335.52,335.52,335.52,335.52,335.52,332.75,332.75,332.75,335.52,335.52,335.52,335.52,335.52,335.52,335.52,335.52,335.52,335.52,335.52,335.52,335.52,335.52,335.52,335.52,335.52,335.52,335.52,335.52,335.52,335.52,335.52,335.52,335.52,335.52,335.52,335.52,335.52,335.52,335.52,335.52,335.52,335.52,335.52,335.52,335.52,335.52,335.52,335.52,335.52,335.52,335.52,335.52,335.52,335.52,335.52,335.52,335.52,335.52,335.52,335.52,335.52,335.52,332.75,332.75,332.75,332.75,332.75,332.75,332.75,332.75,332.75,332.75,332.75,332.75,332.75,335.52,335.52,335.52,335.52,335.12,335.12,335.52,335.52,335.52,332.75,332.75,332.75,332.75,332.75,332.75,332.75,332.75,332.75,332.75,332.75,332.75,332.75,332.75,332.75,332.75,332.75,332.75,332.75,332.75,332.75,332.75,332.75,334.33,335.52,335.52,335.52,335.52,335.52,335.52,335.52,335.52,335.52
344.63,339.08,335.52,335.52,335.52,335.52,332.75,332.75,332.75,332.75,332.75,332.75,332.75,332.75,332.75,332.75,332.75,332.75,332.75,332.75,332.75,332.75,332.75,332.75,332.75,332.75,332.75,332.75,332.75,332.75,332.75,332.75,332.75,333.14,332.75,333.54,333.14,333.54,334.33,333.93,334.33,333.14,327.20,322.84,315.71,314.92,314.13,314.13,314.53,314.13,314.13,314.13,314.13,314.53,314.13,314.13,314.13,314.13,314.13,314.13,314.13,314.13,314.13,314.13,314.13,314.13,314.13,314.13,314.13,314.13,314.13,314.13,314.13,314.13,314.13,314.13,314.13,314.13,314.13,314.13,314.13,314.13,314.13,314.13,314.13,314.13,314.13,314.13,314.13,314.13,314.13,314.13,314.13,314.13,314.13,314.13,314.13,314.13,314.13,314.13,314.13,314.13,314.13,314.13,314.13,314.13,314.13,314.13,314.13,314.13,314.13,314.13,314.13,314.13,314.13,314.13,314.13,314.13,313.34,313.34,313.34,313.34,313.34,313.34,313.34,313.34,313.34,313.34,313.34,313.34,313.34,313.34,313.34,313.34,313.34,313.34,313.34,313.34,313.34,313.34,313.34,313.34,313.34,313.34,313.34,313.34,313.34,313.34,313.34,314.13,314.13,314.13,314.13,314.13,314.13,314.13,314.13,314.13,314.13,315.71,315.71,315.71,315.71,315.71,315.71,315.71,315.71,315.71,315.71,315.71,315.71,315.71,315.71,315.71,315.71,315.71,315.71,315.71,315.71,315.71,315.71,315.71,315.71,315.71,315.71,315.71,314.13,314.13,314.13,314.13,314.13,314.13,314.13,314.13,314.13,314.13,314.13,314.13,315.71,315.71,315.71,315.71,315.71,315.71,315.71,316.11,316.11,316.11,316.11,316.11,316.11,316.11,316.11,339.08,339.08,339.08,339.08,339.08,339.08,335.52,335.52,339.08,339.08,339.08,339.08,339.08,339.08,339.08,339.08,335.52,335.52,335.52,335.52,335.52,335.52,335.52,332.75,332.75,332.75,332.75,332.75,332.75,332.75,332.75,332.75,332.75,332.75,332.75,332.75,332.75,332.75,332.75,332.75,332.75,332.75,332.75,332.75,332.75,332.75,332.75,332.75,332.75,332.75,332.75,332.75,332.75,332.75,332.75,332.75,332.75,335.52,335.52,335.52,335.52,335.52,335.52,335.52,335.52,335.52,335.52,339.08,339.08,339.08,339.08,337.50,337.10,337.10,335.52,335.52,335.52,335.52,335.52,335.52,335.52,335.52,335.52,335.52,335.52,335.52,335.52,335.52,335.52,335.52,335.52,335.52,335.52,335.52,335.52,335.52,335.52,335.52,335.52,335.52,335.52,332.75,332.75,332.75,335.52,335.52,335.52,335.52,335.52,335.52,335.52,335.52,335.52,335.52,335.52,335.52,335.52,335.52,335.52,335.52,335.52,335.52,335.52,335.52,335.52,335.52,335.52,335.52,335.52,335.52,335.52,335.52,335.52,335.52,335.52,335.52,335.52,335.52,335.52,335.52,335.52,335.52,335.52,335.52,335.52,335.52,335.52,335.52,335.52,335.52,335.52,335.52,335.52,335.52,335.52,335.52,335.52,332.75,332.75,332.75,332.75,332.75,332.75,332.75,332.75,332.75,332.75,332.75,332.75,332.75,332.75,335.52,335.52,335.52,335.52,332.75,332.75,335.52,335.52,335.52,332.75,332.75,332.75,332.75,332.75,332.75,332.75,332.75,332.75,332.75,332.75,332.75,332.75,332.75,332.75,332.75,332.75,332.75,332.75,332.75,332.75,332.75,332.75,332.75,335.52,335.52,335.52,335.52,335.52,335.52,335.52,335.52,335.52
